367.410646 314.021190 143.954560
367.410646 315.271190 142.704560
367.410646 315.271190 143.954560
368.660646 314.021190 142.704560
368.660646 314.021190 143.954560
368.660646 315.271190 142.704560
368.660646 315.271190 143.954560
367.410646 314.021190 145.204560
367.410646 314.021190 146.454560
367.410646 315.271190 145.204560
367.410646 315.271190 146.454560
368.660646 314.021190 145.204560
368.660646 314.021190 146.454560
368.660646 315.271190 145.204560
368.660646 315.271190 146.454560
369.910646 314.021190 138.690796
369.910646 314.021190 139.940796
369.910646 315.271190 138.690796
369.910646 315.271190 139.940796
371.160646 314.021190 138.690796
371.160646 314.021190 139.940796
371.160646 315.271190 138.690796
371.160646 315.271190 139.940796
369.910646 314.021190 141.190796
369.910646 314.021190 142.440796
369.910646 315.271190 141.190796
369.910646 315.271190 142.440796
371.160646 314.021190 141.190796
371.160646 314.021190 142.440796
371.160646 315.271190 141.190796
371.160646 315.271190 142.440796
369.910646 314.021190 143.690796
369.910646 314.021190 144.940796
369.910646 315.271190 143.690796
369.910646 315.271190 144.940796
371.160646 314.021190 143.690796
371.160646 314.021190 144.940796
371.160646 315.271190 143.690796
371.160646 315.271190 144.940796
369.910646 314.021190 146.190796
369.910646 314.021190 147.440796
369.910646 315.271190 146.190796
369.910646 315.271190 147.440796
371.160646 314.021190 146.190796
371.160646 314.021190 147.440796
371.160646 315.271190 146.190796
371.160646 315.271190 147.440796
372.410646 314.021190 139.860306
372.410646 314.021190 141.110306
372.410646 315.271190 139.860306
372.410646 315.271190 141.110306
373.660646 314.021190 139.860306
373.660646 314.021190 141.110306
373.660646 315.271190 139.860306
373.660646 315.271190 141.110306
372.410646 314.021190 142.360306
372.410646 314.021190 143.610306
372.410646 315.271190 142.360306
372.410646 315.271190 143.610306
373.660646 314.021190 142.360306
373.660646 314.021190 143.610306
373.660646 315.271190 142.360306
373.660646 315.271190 143.610306
372.410646 314.021190 144.860306
372.410646 314.021190 146.110306
372.410646 315.271190 144.860306
372.410646 315.271190 146.110306
373.660646 314.021190 144.860306
373.660646 314.021190 146.110306
373.660646 315.271190 144.860306
373.660646 315.271190 146.110306
372.410646 314.021190 147.360306
372.410646 314.021190 148.610306
372.410646 315.271190 147.360306
372.410646 315.271190 148.610306
373.660646 314.021190 147.360306
373.660646 314.021190 148.610306
373.660646 315.271190 147.360306
373.660646 315.271190 148.610306
372.410646 314.021190 149.860306
372.410646 314.021190 151.110306
372.410646 315.271190 149.860306
372.410646 315.271190 151.110306
373.660646 314.021190 149.860306
373.660646 314.021190 151.110306
373.660646 315.271190 149.860306
373.660646 315.271190 151.110306
374.910646 314.021190 141.697052
374.910646 314.021190 142.947052
374.910646 315.271190 141.697052
374.910646 315.271190 142.947052
376.160646 314.021190 141.697052
376.160646 314.021190 142.947052
376.160646 315.271190 141.697052
376.160646 315.271190 142.947052
374.910646 314.021190 144.197052
374.910646 314.021190 145.447052
374.910646 315.271190 144.197052
374.910646 315.271190 145.447052
376.160646 314.021190 144.197052
376.160646 314.021190 145.447052
376.160646 315.271190 144.197052
376.160646 315.271190 145.447052
374.910646 314.021190 146.697052
374.910646 314.021190 147.947052
374.910646 315.271190 146.697052
374.910646 315.271190 147.947052
376.160646 314.021190 146.697052
376.160646 314.021190 147.947052
376.160646 315.271190 146.697052
376.160646 315.271190 147.947052
374.910646 314.021190 149.197052
374.910646 314.021190 150.447052
374.910646 315.271190 149.197052
374.910646 315.271190 150.447052
376.160646 314.021190 149.197052
376.160646 314.021190 150.447052
376.160646 315.271190 149.197052
376.160646 315.271190 150.447052
377.410646 314.021190 145.183152
377.410646 314.021190 146.433152
377.410646 315.271190 145.183152
377.410646 315.271190 146.433152
378.660646 314.021190 145.183152
378.660646 314.021190 146.433152
378.660646 315.271190 145.183152
378.660646 315.271190 146.433152
377.410646 314.021190 147.683152
377.410646 314.021190 148.933152
377.410646 315.271190 147.683152
377.410646 315.271190 148.933152
378.660646 314.021190 147.683152
378.660646 314.021190 148.933152
378.660646 315.271190 147.683152
378.660646 315.271190 148.933152
377.410646 314.021190 150.183152
377.410646 314.021190 151.433152
377.410646 315.271190 150.183152
377.410646 315.271190 151.433152
378.660646 314.021190 150.183152
378.660646 314.021190 151.433152
378.660646 315.271190 150.183152
378.660646 315.271190 151.433152
379.910646 314.021190 148.114609
379.910646 314.021190 149.364609
379.910646 315.271190 148.114609
379.910646 315.271190 149.364609
381.160646 314.021190 148.114609
381.160646 314.021190 149.364609
381.160646 315.271190 148.114609
381.160646 315.271190 149.364609
379.910646 314.021190 150.614609
379.910646 314.021190 151.864609
379.910646 315.271190 150.614609
379.910646 315.271190 151.864609
381.160646 314.021190 150.614609
381.160646 314.021190 151.864609
381.160646 315.271190 150.614609
381.160646 315.271190 151.864609
379.910646 314.021190 153.114609
379.910646 314.021190 154.364609
379.910646 315.271190 153.114609
379.910646 315.271190 154.364609
381.160646 314.021190 153.114609
381.160646 314.021190 154.364609
381.160646 315.271190 153.114609
381.160646 315.271190 154.364609
382.410646 314.021190 149.630936
382.410646 314.021190 150.880936
382.410646 315.271190 149.630936
382.410646 315.271190 150.880936
383.660646 314.021190 149.630936
383.660646 314.021190 150.880936
383.660646 315.271190 149.630936
383.660646 315.271190 150.880936
382.410646 314.021190 152.130936
382.410646 314.021190 153.380936
382.410646 315.271190 152.130936
382.410646 315.271190 153.380936
383.660646 314.021190 152.130936
383.660646 314.021190 153.380936
383.660646 315.271190 152.130936
383.660646 315.271190 153.380936
384.910646 314.021190 150.693451
384.910646 314.021190 151.943451
384.910646 315.271190 150.693451
384.910646 315.271190 151.943451
386.160646 314.021190 150.693451
386.160646 314.021190 151.943451
386.160646 315.271190 150.693451
386.160646 315.271190 151.943451
384.910646 314.021190 153.193451
384.910646 314.021190 154.443451
384.910646 315.271190 153.193451
384.910646 315.271190 154.443451
386.160646 314.021190 153.193451
386.160646 314.021190 154.443451
386.160646 315.271190 153.193451
386.160646 315.271190 154.443451
387.410646 314.021190 153.228439
387.410646 314.021190 154.478439
387.410646 315.271190 153.228439
387.410646 315.271190 154.478439
388.660646 314.021190 153.228439
388.660646 314.021190 154.478439
388.660646 315.271190 153.228439
388.660646 315.271190 154.478439
387.410646 314.021190 155.728439
387.410646 314.021190 156.978439
387.410646 315.271190 155.728439
387.410646 315.271190 156.978439
388.660646 314.021190 155.728439
388.660646 314.021190 156.978439
388.660646 315.271190 155.728439
388.660646 315.271190 156.978439
389.910646 314.021190 154.795868
389.910646 314.021190 156.045868
389.910646 315.271190 154.795868
389.910646 315.271190 156.045868
391.160646 314.021190 154.795868
391.160646 314.021190 156.045868
391.160646 315.271190 154.795868
391.160646 315.271190 156.045868
392.410646 314.021190 157.002442
392.410646 314.021190 158.252442
392.410646 315.271190 157.002442
392.410646 315.271190 158.252442
393.660646 314.021190 157.002442
393.660646 314.021190 158.252442
393.660646 315.271190 157.002442
393.660646 315.271190 158.252442
394.910646 314.021190 159.050797
394.910646 314.021190 160.300797
394.910646 315.271190 159.050797
394.910646 315.271190 160.300797
396.160646 314.021190 159.050797
396.160646 314.021190 160.300797
396.160646 315.271190 159.050797
396.160646 315.271190 160.300797
257.410646 316.521190 122.387955
257.410646 316.521190 123.637955
257.410646 317.771190 122.387955
257.410646 317.771190 123.637955
258.660646 316.521190 122.387955
258.660646 316.521190 123.637955
258.660646 317.771190 122.387955
258.660646 317.771190 123.637955
259.910646 316.521190 122.347031
259.910646 316.521190 123.597031
259.910646 317.771190 122.347031
259.910646 317.771190 123.597031
261.160646 316.521190 122.347031
261.160646 316.521190 123.597031
261.160646 317.771190 122.347031
261.160646 317.771190 123.597031
262.410646 316.521190 122.563644
262.410646 316.521190 123.813644
262.410646 317.771190 122.563644
262.410646 317.771190 123.813644
263.660646 316.521190 122.563644
263.660646 316.521190 123.813644
263.660646 317.771190 122.563644
263.660646 317.771190 123.813644
264.910646 316.521190 123.307175
264.910646 316.521190 124.557175
264.910646 317.771190 123.307175
264.910646 317.771190 124.557175
266.160646 316.521190 123.307175
266.160646 316.521190 124.557175
266.160646 317.771190 123.307175
266.160646 317.771190 124.557175
279.910646 316.521190 126.544098
279.910646 316.521190 127.794098
279.910646 317.771190 126.544098
279.910646 317.771190 127.794098
281.160646 316.521190 126.544098
281.160646 316.521190 127.794098
281.160646 317.771190 126.544098
281.160646 317.771190 127.794098
282.410646 316.521190 126.842056
282.410646 316.521190 128.092056
282.410646 317.771190 126.842056
282.410646 317.771190 128.092056
283.660646 316.521190 126.842056
283.660646 316.521190 128.092056
283.660646 317.771190 126.842056
283.660646 317.771190 128.092056
284.910646 316.521190 127.065735
284.910646 316.521190 128.315735
284.910646 317.771190 127.065735
284.910646 317.771190 128.315735
286.160646 316.521190 127.065735
286.160646 316.521190 128.315735
286.160646 317.771190 127.065735
286.160646 317.771190 128.315735
287.410646 316.521190 127.283707
287.410646 316.521190 128.533707
287.410646 317.771190 127.283707
287.410646 317.771190 128.533707
288.660646 316.521190 127.283707
288.660646 316.521190 128.533707
288.660646 317.771190 127.283707
288.660646 317.771190 128.533707
289.910646 316.521190 127.445984
289.910646 316.521190 128.695984
289.910646 317.771190 127.445984
289.910646 317.771190 128.695984
291.160646 316.521190 127.445984
291.160646 316.521190 128.695984
291.160646 317.771190 127.445984
291.160646 317.771190 128.695984
292.410646 316.521190 127.518936
292.410646 316.521190 128.768936
292.410646 317.771190 127.518936
292.410646 317.771190 128.768936
293.660646 316.521190 127.518936
293.660646 316.521190 128.768936
293.660646 317.771190 127.518936
293.660646 317.771190 128.768936
294.910646 316.521190 127.611801
294.910646 316.521190 128.861801
294.910646 317.771190 127.611801
294.910646 317.771190 128.861801
296.160646 316.521190 127.611801
296.160646 316.521190 128.861801
296.160646 317.771190 127.611801
296.160646 317.771190 128.861801
297.410646 316.521190 127.699326
297.410646 316.521190 128.949326
297.410646 317.771190 127.699326
297.410646 317.771190 128.949326
298.660646 316.521190 127.699326
298.660646 316.521190 128.949326
298.660646 317.771190 127.699326
298.660646 317.771190 128.949326
299.910646 316.521190 127.785430
299.910646 316.521190 129.035430
299.910646 317.771190 127.785430
299.910646 317.771190 129.035430
301.160646 316.521190 127.785430
301.160646 316.521190 129.035430
301.160646 317.771190 127.785430
301.160646 317.771190 129.035430
302.410646 316.521190 127.856827
302.410646 316.521190 129.106827
302.410646 317.771190 127.856827
302.410646 317.771190 129.106827
303.660646 316.521190 127.856827
303.660646 316.521190 129.106827
303.660646 317.771190 127.856827
303.660646 317.771190 129.106827
304.910646 316.521190 127.926026
304.910646 316.521190 129.176026
304.910646 317.771190 127.926026
304.910646 317.771190 129.176026
306.160646 316.521190 127.926026
306.160646 316.521190 129.176026
306.160646 317.771190 127.926026
306.160646 317.771190 129.176026
307.410646 316.521190 128.009872
307.410646 316.521190 129.259872
307.410646 317.771190 128.009872
307.410646 317.771190 129.259872
308.660646 316.521190 128.009872
308.660646 316.521190 129.259872
308.660646 317.771190 128.009872
308.660646 317.771190 129.259872
307.410646 316.521190 130.509872
307.410646 316.521190 131.759872
307.410646 317.771190 130.509872
307.410646 317.771190 131.759872
308.660646 316.521190 130.509872
308.660646 316.521190 131.759872
308.660646 317.771190 130.509872
308.660646 317.771190 131.759872
309.910646 316.521190 128.046601
309.910646 316.521190 129.296601
309.910646 317.771190 128.046601
309.910646 317.771190 129.296601
311.160646 316.521190 128.046601
311.160646 316.521190 129.296601
311.160646 317.771190 128.046601
311.160646 317.771190 129.296601
309.910646 316.521190 130.546601
309.910646 316.521190 131.796601
309.910646 317.771190 130.546601
309.910646 317.771190 131.796601
311.160646 316.521190 130.546601
311.160646 316.521190 131.796601
311.160646 317.771190 130.546601
311.160646 317.771190 131.796601
312.410646 316.521190 128.021378
312.410646 316.521190 129.271378
312.410646 317.771190 128.021378
312.410646 317.771190 129.271378
313.660646 316.521190 128.021378
313.660646 316.521190 129.271378
313.660646 317.771190 128.021378
313.660646 317.771190 129.271378
312.410646 316.521190 130.521378
312.410646 316.521190 131.771378
312.410646 317.771190 130.521378
312.410646 317.771190 131.771378
313.660646 316.521190 130.521378
313.660646 316.521190 131.771378
313.660646 317.771190 130.521378
313.660646 317.771190 131.771378
314.910646 316.521190 128.143479
314.910646 316.521190 129.393479
314.910646 317.771190 128.143479
314.910646 317.771190 129.393479
316.160646 316.521190 128.143479
316.160646 316.521190 129.393479
316.160646 317.771190 128.143479
316.160646 317.771190 129.393479
314.910646 316.521190 130.643479
314.910646 316.521190 131.893479
314.910646 317.771190 130.643479
314.910646 317.771190 131.893479
316.160646 316.521190 130.643479
316.160646 316.521190 131.893479
316.160646 317.771190 130.643479
316.160646 317.771190 131.893479
317.410646 316.521190 128.303787
317.410646 316.521190 129.553787
317.410646 317.771190 128.303787
317.410646 317.771190 129.553787
318.660646 316.521190 128.303787
318.660646 316.521190 129.553787
318.660646 317.771190 128.303787
318.660646 317.771190 129.553787
317.410646 316.521190 130.803787
317.410646 316.521190 132.053787
317.410646 317.771190 130.803787
317.410646 317.771190 132.053787
318.660646 316.521190 130.803787
318.660646 316.521190 132.053787
318.660646 317.771190 130.803787
318.660646 317.771190 132.053787
319.910646 316.521190 128.543487
319.910646 316.521190 129.793487
319.910646 317.771190 128.543487
319.910646 317.771190 129.793487
321.160646 316.521190 128.543487
321.160646 316.521190 129.793487
321.160646 317.771190 128.543487
321.160646 317.771190 129.793487
319.910646 316.521190 131.043487
319.910646 316.521190 132.293487
319.910646 317.771190 131.043487
319.910646 317.771190 132.293487
321.160646 316.521190 131.043487
321.160646 316.521190 132.293487
321.160646 317.771190 131.043487
321.160646 317.771190 132.293487
322.410646 316.521190 128.830582
322.410646 316.521190 130.080582
322.410646 317.771190 128.830582
322.410646 317.771190 130.080582
323.660646 316.521190 128.830582
323.660646 316.521190 130.080582
323.660646 317.771190 128.830582
323.660646 317.771190 130.080582
322.410646 316.521190 131.330582
322.410646 316.521190 132.580582
322.410646 317.771190 131.330582
322.410646 317.771190 132.580582
323.660646 316.521190 131.330582
323.660646 316.521190 132.580582
323.660646 317.771190 131.330582
323.660646 317.771190 132.580582
324.910646 316.521190 129.298447
324.910646 316.521190 130.548447
324.910646 317.771190 129.298447
324.910646 317.771190 130.548447
326.160646 316.521190 129.298447
326.160646 316.521190 130.548447
326.160646 317.771190 129.298447
326.160646 317.771190 130.548447
324.910646 316.521190 131.798447
324.910646 316.521190 133.048447
324.910646 317.771190 131.798447
324.910646 317.771190 133.048447
326.160646 316.521190 131.798447
326.160646 316.521190 133.048447
326.160646 317.771190 131.798447
326.160646 317.771190 133.048447
327.410646 316.521190 129.826309
327.410646 316.521190 131.076309
327.410646 317.771190 129.826309
327.410646 317.771190 131.076309
328.660646 316.521190 129.826309
328.660646 316.521190 131.076309
328.660646 317.771190 129.826309
328.660646 317.771190 131.076309
327.410646 316.521190 132.326309
327.410646 316.521190 133.576309
327.410646 317.771190 132.326309
327.410646 317.771190 133.576309
328.660646 316.521190 132.326309
328.660646 316.521190 133.576309
328.660646 317.771190 132.326309
328.660646 317.771190 133.576309
329.910646 316.521190 130.235108
329.910646 316.521190 131.485108
329.910646 317.771190 130.235108
329.910646 317.771190 131.485108
331.160646 316.521190 130.235108
331.160646 316.521190 131.485108
331.160646 317.771190 130.235108
331.160646 317.771190 131.485108
329.910646 316.521190 132.735108
329.910646 316.521190 133.985108
329.910646 317.771190 132.735108
329.910646 317.771190 133.985108
331.160646 316.521190 132.735108
331.160646 316.521190 133.985108
331.160646 317.771190 132.735108
331.160646 317.771190 133.985108
332.410646 316.521190 130.579147
332.410646 316.521190 131.829147
332.410646 317.771190 130.579147
332.410646 317.771190 131.829147
333.660646 316.521190 130.579147
333.660646 316.521190 131.829147
333.660646 317.771190 130.579147
333.660646 317.771190 131.829147
332.410646 316.521190 133.079147
332.410646 316.521190 134.329147
332.410646 317.771190 133.079147
332.410646 317.771190 134.329147
333.660646 316.521190 133.079147
333.660646 316.521190 134.329147
333.660646 317.771190 133.079147
333.660646 317.771190 134.329147
334.910646 316.521190 130.958023
334.910646 316.521190 132.208023
334.910646 317.771190 130.958023
334.910646 317.771190 132.208023
336.160646 316.521190 130.958023
336.160646 316.521190 132.208023
336.160646 317.771190 130.958023
336.160646 317.771190 132.208023
334.910646 316.521190 133.458023
334.910646 316.521190 134.708023
334.910646 317.771190 133.458023
334.910646 317.771190 134.708023
336.160646 316.521190 133.458023
336.160646 316.521190 134.708023
336.160646 317.771190 133.458023
336.160646 317.771190 134.708023
337.410646 316.521190 131.530258
337.410646 316.521190 132.780258
337.410646 317.771190 131.530258
337.410646 317.771190 132.780258
338.660646 316.521190 131.530258
338.660646 316.521190 132.780258
338.660646 317.771190 131.530258
338.660646 317.771190 132.780258
337.410646 316.521190 134.030258
337.410646 316.521190 135.280258
337.410646 317.771190 134.030258
337.410646 317.771190 135.280258
338.660646 316.521190 134.030258
338.660646 316.521190 135.280258
338.660646 317.771190 134.030258
338.660646 317.771190 135.280258
339.910646 316.521190 132.219956
339.910646 316.521190 133.469956
339.910646 317.771190 132.219956
339.910646 317.771190 133.469956
341.160646 316.521190 132.219956
341.160646 316.521190 133.469956
341.160646 317.771190 132.219956
341.160646 317.771190 133.469956
339.910646 316.521190 134.719956
339.910646 316.521190 135.969956
339.910646 317.771190 134.719956
339.910646 317.771190 135.969956
341.160646 316.521190 134.719956
341.160646 316.521190 135.969956
341.160646 317.771190 134.719956
341.160646 317.771190 135.969956
342.410646 316.521190 132.882156
342.410646 316.521190 134.132156
342.410646 317.771190 132.882156
342.410646 317.771190 134.132156
343.660646 316.521190 132.882156
343.660646 316.521190 134.132156
343.660646 317.771190 132.882156
343.660646 317.771190 134.132156
342.410646 316.521190 135.382156
342.410646 316.521190 136.632156
342.410646 317.771190 135.382156
342.410646 317.771190 136.632156
343.660646 316.521190 135.382156
343.660646 316.521190 136.632156
343.660646 317.771190 135.382156
343.660646 317.771190 136.632156
344.910646 316.521190 133.426438
344.910646 316.521190 134.676438
344.910646 317.771190 133.426438
344.910646 317.771190 134.676438
346.160646 316.521190 133.426438
346.160646 316.521190 134.676438
346.160646 317.771190 133.426438
346.160646 317.771190 134.676438
344.910646 316.521190 135.926438
344.910646 316.521190 137.176438
344.910646 317.771190 135.926438
344.910646 317.771190 137.176438
346.160646 316.521190 135.926438
346.160646 316.521190 137.176438
346.160646 317.771190 135.926438
346.160646 317.771190 137.176438
347.410646 316.521190 133.981583
347.410646 316.521190 135.231583
347.410646 317.771190 133.981583
347.410646 317.771190 135.231583
348.660646 316.521190 133.981583
348.660646 316.521190 135.231583
348.660646 317.771190 133.981583
348.660646 317.771190 135.231583
347.410646 316.521190 136.481583
347.410646 316.521190 137.731583
347.410646 317.771190 136.481583
347.410646 317.771190 137.731583
348.660646 316.521190 136.481583
348.660646 316.521190 137.731583
348.660646 317.771190 136.481583
348.660646 317.771190 137.731583
347.410646 316.521190 138.981583
347.410646 316.521190 140.231583
347.410646 317.771190 138.981583
347.410646 317.771190 140.231583
348.660646 316.521190 138.981583
348.660646 316.521190 140.231583
348.660646 317.771190 138.981583
348.660646 317.771190 140.231583
349.910646 316.521190 134.541687
349.910646 316.521190 135.791687
349.910646 317.771190 134.541687
349.910646 317.771190 135.791687
351.160646 316.521190 134.541687
351.160646 316.521190 135.791687
351.160646 317.771190 134.541687
351.160646 317.771190 135.791687
349.910646 316.521190 137.041687
349.910646 316.521190 138.291687
349.910646 317.771190 137.041687
349.910646 317.771190 138.291687
351.160646 316.521190 137.041687
351.160646 316.521190 138.291687
351.160646 317.771190 137.041687
351.160646 317.771190 138.291687
349.910646 316.521190 139.541687
349.910646 316.521190 140.791687
349.910646 317.771190 139.541687
349.910646 317.771190 140.791687
351.160646 316.521190 139.541687
351.160646 316.521190 140.791687
351.160646 317.771190 139.541687
351.160646 317.771190 140.791687
352.410646 316.521190 135.162888
352.410646 316.521190 136.412888
352.410646 317.771190 135.162888
352.410646 317.771190 136.412888
353.660646 316.521190 135.162888
353.660646 316.521190 136.412888
353.660646 317.771190 135.162888
353.660646 317.771190 136.412888
352.410646 316.521190 137.662888
352.410646 316.521190 138.912888
352.410646 317.771190 137.662888
352.410646 317.771190 138.912888
353.660646 316.521190 137.662888
353.660646 316.521190 138.912888
353.660646 317.771190 137.662888
353.660646 317.771190 138.912888
352.410646 316.521190 140.162888
352.410646 316.521190 141.412888
352.410646 317.771190 140.162888
352.410646 317.771190 141.412888
353.660646 316.521190 140.162888
353.660646 316.521190 141.412888
353.660646 317.771190 140.162888
353.660646 317.771190 141.412888
352.410646 316.521190 142.662888
352.410646 316.521190 143.912888
352.410646 317.771190 142.662888
352.410646 317.771190 143.912888
353.660646 316.521190 142.662888
353.660646 316.521190 143.912888
353.660646 317.771190 142.662888
353.660646 317.771190 143.912888
354.910646 316.521190 135.866547
354.910646 316.521190 137.116547
354.910646 317.771190 135.866547
354.910646 317.771190 137.116547
356.160646 316.521190 135.866547
356.160646 316.521190 137.116547
356.160646 317.771190 135.866547
356.160646 317.771190 137.116547
354.910646 316.521190 138.366547
354.910646 316.521190 139.616547
354.910646 317.771190 138.366547
354.910646 317.771190 139.616547
356.160646 316.521190 138.366547
356.160646 316.521190 139.616547
356.160646 317.771190 138.366547
356.160646 317.771190 139.616547
354.910646 316.521190 140.866547
354.910646 316.521190 142.116547
354.910646 317.771190 140.866547
354.910646 317.771190 142.116547
356.160646 316.521190 140.866547
356.160646 316.521190 142.116547
356.160646 317.771190 140.866547
356.160646 317.771190 142.116547
354.910646 316.521190 143.366547
354.910646 316.521190 144.616547
354.910646 317.771190 143.366547
354.910646 317.771190 144.616547
356.160646 316.521190 143.366547
356.160646 316.521190 144.616547
356.160646 317.771190 143.366547
356.160646 317.771190 144.616547
357.410646 316.521190 136.570206
357.410646 316.521190 137.820206
357.410646 317.771190 136.570206
357.410646 317.771190 137.820206
358.660646 316.521190 136.570206
358.660646 316.521190 137.820206
358.660646 317.771190 136.570206
358.660646 317.771190 137.820206
357.410646 316.521190 139.070206
357.410646 316.521190 140.320206
357.410646 317.771190 139.070206
357.410646 317.771190 140.320206
358.660646 316.521190 139.070206
358.660646 316.521190 140.320206
358.660646 317.771190 139.070206
358.660646 317.771190 140.320206
357.410646 316.521190 141.570206
357.410646 316.521190 142.820206
357.410646 317.771190 141.570206
357.410646 317.771190 142.820206
358.660646 316.521190 141.570206
358.660646 316.521190 142.820206
358.660646 317.771190 141.570206
358.660646 317.771190 142.820206
357.410646 316.521190 144.070206
357.410646 316.521190 145.320206
357.410646 317.771190 144.070206
357.410646 317.771190 145.320206
358.660646 316.521190 144.070206
358.660646 316.521190 145.320206
358.660646 317.771190 144.070206
358.660646 317.771190 145.320206
359.910646 316.521190 137.146301
359.910646 316.521190 138.396301
359.910646 317.771190 137.146301
359.910646 317.771190 138.396301
361.160646 316.521190 137.146301
361.160646 316.521190 138.396301
361.160646 317.771190 137.146301
361.160646 317.771190 138.396301
359.910646 316.521190 139.646301
359.910646 316.521190 140.896301
359.910646 317.771190 139.646301
359.910646 317.771190 140.896301
361.160646 316.521190 139.646301
361.160646 316.521190 140.896301
361.160646 317.771190 139.646301
361.160646 317.771190 140.896301
359.910646 316.521190 142.146301
359.910646 316.521190 143.396301
359.910646 317.771190 142.146301
359.910646 317.771190 143.396301
361.160646 316.521190 142.146301
361.160646 316.521190 143.396301
361.160646 317.771190 142.146301
361.160646 317.771190 143.396301
359.910646 316.521190 144.646301
359.910646 316.521190 145.896301
359.910646 317.771190 144.646301
359.910646 317.771190 145.896301
361.160646 316.521190 144.646301
361.160646 316.521190 145.896301
361.160646 317.771190 144.646301
361.160646 317.771190 145.896301
362.410646 316.521190 137.630295
362.410646 316.521190 138.880295
362.410646 317.771190 137.630295
362.410646 317.771190 138.880295
363.660646 316.521190 137.630295
363.660646 316.521190 138.880295
363.660646 317.771190 137.630295
363.660646 317.771190 138.880295
362.410646 316.521190 140.130295
362.410646 316.521190 141.380295
362.410646 317.771190 140.130295
362.410646 317.771190 141.380295
363.660646 316.521190 140.130295
363.660646 316.521190 141.380295
363.660646 317.771190 140.130295
363.660646 317.771190 141.380295
362.410646 316.521190 142.630295
362.410646 316.521190 143.880295
362.410646 317.771190 142.630295
362.410646 317.771190 143.880295
363.660646 316.521190 142.630295
363.660646 316.521190 143.880295
363.660646 317.771190 142.630295
363.660646 317.771190 143.880295
362.410646 316.521190 145.130295
362.410646 316.521190 146.380295
362.410646 317.771190 145.130295
362.410646 317.771190 146.380295
363.660646 316.521190 145.130295
363.660646 316.521190 146.380295
363.660646 317.771190 145.130295
363.660646 317.771190 146.380295
364.910646 316.521190 138.265808
364.910646 316.521190 139.515808
364.910646 317.771190 138.265808
364.910646 317.771190 139.515808
366.160646 316.521190 138.265808
366.160646 316.521190 139.515808
366.160646 317.771190 138.265808
366.160646 317.771190 139.515808
364.910646 316.521190 140.765808
364.910646 316.521190 142.015808
364.910646 317.771190 140.765808
364.910646 317.771190 142.015808
366.160646 316.521190 140.765808
366.160646 316.521190 142.015808
366.160646 317.771190 140.765808
366.160646 317.771190 142.015808
364.910646 316.521190 143.265808
364.910646 316.521190 144.515808
364.910646 317.771190 143.265808
364.910646 317.771190 144.515808
366.160646 316.521190 143.265808
366.160646 316.521190 144.515808
366.160646 317.771190 143.265808
366.160646 317.771190 144.515808
364.910646 316.521190 145.765808
364.910646 316.521190 147.015808
364.910646 317.771190 145.765808
364.910646 317.771190 147.015808
366.160646 316.521190 145.765808
366.160646 316.521190 147.015808
366.160646 317.771190 145.765808
366.160646 317.771190 147.015808
367.410646 316.521190 139.124802
367.410646 316.521190 140.374802
367.410646 317.771190 139.124802
367.410646 317.771190 140.374802
368.660646 316.521190 139.124802
368.660646 316.521190 140.374802
368.660646 317.771190 139.124802
368.660646 317.771190 140.374802
367.410646 316.521190 141.624802
367.410646 316.521190 142.874802
367.410646 317.771190 141.624802
367.410646 317.771190 142.874802
368.660646 316.521190 141.624802
368.660646 316.521190 142.874802
368.660646 317.771190 141.624802
368.660646 317.771190 142.874802
367.410646 316.521190 144.124802
367.410646 316.521190 145.374802
367.410646 317.771190 144.124802
367.410646 317.771190 145.374802
368.660646 316.521190 144.124802
368.660646 316.521190 145.374802
368.660646 317.771190 144.124802
368.660646 317.771190 145.374802
367.410646 316.521190 146.624802
367.410646 316.521190 147.874802
367.410646 317.771190 146.624802
367.410646 317.771190 147.874802
368.660646 316.521190 146.624802
368.660646 316.521190 147.874802
368.660646 317.771190 146.624802
368.660646 317.771190 147.874802
367.410646 316.521190 149.124802
367.410646 316.521190 150.374802
367.410646 317.771190 149.124802
367.410646 317.771190 150.374802
368.660646 316.521190 149.124802
368.660646 316.521190 150.374802
368.660646 317.771190 149.124802
368.660646 317.771190 150.374802
369.910646 316.521190 140.205948
369.910646 316.521190 141.455948
369.910646 317.771190 140.205948
369.910646 317.771190 141.455948
371.160646 316.521190 140.205948
371.160646 316.521190 141.455948
371.160646 317.771190 140.205948
371.160646 317.771190 141.455948
369.910646 316.521190 142.705948
369.910646 316.521190 143.955948
369.910646 317.771190 142.705948
369.910646 317.771190 143.955948
371.160646 316.521190 142.705948
371.160646 316.521190 143.955948
371.160646 317.771190 142.705948
371.160646 317.771190 143.955948
369.910646 316.521190 145.205948
369.910646 316.521190 146.455948
369.910646 317.771190 145.205948
369.910646 317.771190 146.455948
371.160646 316.521190 145.205948
371.160646 316.521190 146.455948
371.160646 317.771190 145.205948
371.160646 317.771190 146.455948
369.910646 316.521190 147.705948
369.910646 316.521190 148.955948
369.910646 317.771190 147.705948
369.910646 317.771190 148.955948
371.160646 316.521190 147.705948
371.160646 316.521190 148.955948
371.160646 317.771190 147.705948
371.160646 317.771190 148.955948
369.910646 316.521190 150.205948
369.910646 316.521190 151.455948
369.910646 317.771190 150.205948
369.910646 317.771190 151.455948
371.160646 316.521190 150.205948
371.160646 316.521190 151.455948
371.160646 317.771190 150.205948
371.160646 317.771190 151.455948
372.410646 316.521190 141.752792
372.410646 316.521190 143.002792
372.410646 317.771190 141.752792
372.410646 317.771190 143.002792
373.660646 316.521190 141.752792
373.660646 316.521190 143.002792
373.660646 317.771190 141.752792
373.660646 317.771190 143.002792
372.410646 316.521190 144.252792
372.410646 316.521190 145.502792
372.410646 317.771190 144.252792
372.410646 317.771190 145.502792
373.660646 316.521190 144.252792
373.660646 316.521190 145.502792
373.660646 317.771190 144.252792
373.660646 317.771190 145.502792
372.410646 316.521190 146.752792
372.410646 316.521190 148.002792
372.410646 317.771190 146.752792
372.410646 317.771190 148.002792
373.660646 316.521190 146.752792
373.660646 316.521190 148.002792
373.660646 317.771190 146.752792
373.660646 317.771190 148.002792
372.410646 316.521190 149.252792
372.410646 316.521190 150.502792
372.410646 317.771190 149.252792
372.410646 317.771190 150.502792
373.660646 316.521190 149.252792
373.660646 316.521190 150.502792
373.660646 317.771190 149.252792
373.660646 317.771190 150.502792
372.410646 316.521190 151.752792
372.410646 316.521190 153.002792
372.410646 317.771190 151.752792
372.410646 317.771190 153.002792
373.660646 316.521190 151.752792
373.660646 316.521190 153.002792
373.660646 317.771190 151.752792
373.660646 317.771190 153.002792
374.910646 316.521190 144.951203
374.910646 316.521190 146.201203
374.910646 317.771190 144.951203
374.910646 317.771190 146.201203
376.160646 316.521190 144.951203
376.160646 316.521190 146.201203
376.160646 317.771190 144.951203
376.160646 317.771190 146.201203
374.910646 316.521190 147.451203
374.910646 316.521190 148.701203
374.910646 317.771190 147.451203
374.910646 317.771190 148.701203
376.160646 316.521190 147.451203
376.160646 316.521190 148.701203
376.160646 317.771190 147.451203
376.160646 317.771190 148.701203
374.910646 316.521190 149.951203
374.910646 316.521190 151.201203
374.910646 317.771190 149.951203
374.910646 317.771190 151.201203
376.160646 316.521190 149.951203
376.160646 316.521190 151.201203
376.160646 317.771190 149.951203
376.160646 317.771190 151.201203
374.910646 316.521190 152.451203
374.910646 316.521190 153.701203
374.910646 317.771190 152.451203
374.910646 317.771190 153.701203
376.160646 316.521190 152.451203
376.160646 316.521190 153.701203
376.160646 317.771190 152.451203
376.160646 317.771190 153.701203
377.410646 316.521190 147.811050
377.410646 316.521190 149.061050
377.410646 317.771190 147.811050
377.410646 317.771190 149.061050
378.660646 316.521190 147.811050
378.660646 316.521190 149.061050
378.660646 317.771190 147.811050
378.660646 317.771190 149.061050
377.410646 316.521190 150.311050
377.410646 316.521190 151.561050
377.410646 317.771190 150.311050
377.410646 317.771190 151.561050
378.660646 316.521190 150.311050
378.660646 316.521190 151.561050
378.660646 317.771190 150.311050
378.660646 317.771190 151.561050
377.410646 316.521190 152.811050
377.410646 316.521190 154.061050
377.410646 317.771190 152.811050
377.410646 317.771190 154.061050
378.660646 316.521190 152.811050
378.660646 316.521190 154.061050
378.660646 317.771190 152.811050
378.660646 317.771190 154.061050
379.910646 316.521190 149.460785
379.910646 316.521190 150.710785
379.910646 317.771190 149.460785
379.910646 317.771190 150.710785
381.160646 316.521190 149.460785
381.160646 316.521190 150.710785
381.160646 317.771190 149.460785
381.160646 317.771190 150.710785
379.910646 316.521190 151.960785
379.910646 316.521190 153.210785
379.910646 317.771190 151.960785
379.910646 317.771190 153.210785
381.160646 316.521190 151.960785
381.160646 316.521190 153.210785
381.160646 317.771190 151.960785
381.160646 317.771190 153.210785
379.910646 316.521190 154.460785
379.910646 316.521190 155.710785
379.910646 317.771190 154.460785
379.910646 317.771190 155.710785
381.160646 316.521190 154.460785
381.160646 316.521190 155.710785
381.160646 317.771190 154.460785
381.160646 317.771190 155.710785
382.410646 316.521190 150.572128
382.410646 316.521190 151.822128
382.410646 317.771190 150.572128
382.410646 317.771190 151.822128
383.660646 316.521190 150.572128
383.660646 316.521190 151.822128
383.660646 317.771190 150.572128
383.660646 317.771190 151.822128
382.410646 316.521190 153.072128
382.410646 316.521190 154.322128
382.410646 317.771190 153.072128
382.410646 317.771190 154.322128
383.660646 316.521190 153.072128
383.660646 316.521190 154.322128
383.660646 317.771190 153.072128
383.660646 317.771190 154.322128
382.410646 316.521190 155.572128
382.410646 316.521190 156.822128
382.410646 317.771190 155.572128
382.410646 317.771190 156.822128
383.660646 316.521190 155.572128
383.660646 316.521190 156.822128
383.660646 317.771190 155.572128
383.660646 317.771190 156.822128
384.910646 316.521190 153.140076
384.910646 316.521190 154.390076
384.910646 317.771190 153.140076
384.910646 317.771190 154.390076
386.160646 316.521190 153.140076
386.160646 316.521190 154.390076
386.160646 317.771190 153.140076
386.160646 317.771190 154.390076
384.910646 316.521190 155.640076
384.910646 316.521190 156.890076
384.910646 317.771190 155.640076
384.910646 317.771190 156.890076
386.160646 316.521190 155.640076
386.160646 316.521190 156.890076
386.160646 317.771190 155.640076
386.160646 317.771190 156.890076
387.410646 316.521190 154.677231
387.410646 316.521190 155.927231
387.410646 317.771190 154.677231
387.410646 317.771190 155.927231
388.660646 316.521190 154.677231
388.660646 316.521190 155.927231
388.660646 317.771190 154.677231
388.660646 317.771190 155.927231
387.410646 316.521190 157.177231
387.410646 316.521190 158.427231
387.410646 317.771190 157.177231
387.410646 317.771190 158.427231
388.660646 316.521190 157.177231
388.660646 316.521190 158.427231
388.660646 317.771190 157.177231
388.660646 317.771190 158.427231
389.910646 316.521190 156.698029
389.910646 316.521190 157.948029
389.910646 317.771190 156.698029
389.910646 317.771190 157.948029
391.160646 316.521190 156.698029
391.160646 316.521190 157.948029
391.160646 317.771190 156.698029
391.160646 317.771190 157.948029
389.910646 316.521190 159.198029
389.910646 316.521190 160.448029
389.910646 317.771190 159.198029
389.910646 317.771190 160.448029
391.160646 316.521190 159.198029
391.160646 316.521190 160.448029
391.160646 317.771190 159.198029
391.160646 317.771190 160.448029
392.410646 316.521190 159.158737
392.410646 316.521190 160.408737
392.410646 317.771190 159.158737
392.410646 317.771190 160.408737
393.660646 316.521190 159.158737
393.660646 316.521190 160.408737
393.660646 317.771190 159.158737
393.660646 317.771190 160.408737
394.910646 316.521190 161.363587
394.910646 316.521190 162.613587
394.910646 317.771190 161.363587
394.910646 317.771190 162.613587
396.160646 316.521190 161.363587
396.160646 316.521190 162.613587
396.160646 317.771190 161.363587
396.160646 317.771190 162.613587
257.410646 319.021190 124.135467
257.410646 319.021190 125.385467
257.410646 320.271190 124.135467
257.410646 320.271190 125.385467
258.660646 319.021190 124.135467
258.660646 319.021190 125.385467
258.660646 320.271190 124.135467
258.660646 320.271190 125.385467
259.910646 319.021190 123.718536
259.910646 319.021190 124.968536
259.910646 320.271190 123.718536
259.910646 320.271190 124.968536
261.160646 319.021190 123.718536
261.160646 319.021190 124.968536
261.160646 320.271190 123.718536
261.160646 320.271190 124.968536
262.410646 319.021190 123.778031
262.410646 319.021190 125.028031
262.410646 320.271190 123.778031
262.410646 320.271190 125.028031
263.660646 319.021190 123.778031
263.660646 319.021190 125.028031
263.660646 320.271190 123.778031
263.660646 320.271190 125.028031
264.910646 319.021190 124.365860
264.910646 319.021190 125.615860
264.910646 320.271190 124.365860
264.910646 320.271190 125.615860
266.160646 319.021190 124.365860
266.160646 319.021190 125.615860
266.160646 320.271190 124.365860
266.160646 320.271190 125.615860
267.410646 319.021190 125.053956
267.410646 319.021190 126.303956
267.410646 320.271190 125.053956
267.410646 320.271190 126.303956
268.660646 319.021190 125.053956
268.660646 319.021190 126.303956
268.660646 320.271190 125.053956
268.660646 320.271190 126.303956
269.910646 319.021190 125.636704
269.910646 319.021190 126.886704
269.910646 320.271190 125.636704
269.910646 320.271190 126.886704
271.160646 319.021190 125.636704
271.160646 319.021190 126.886704
271.160646 320.271190 125.636704
271.160646 320.271190 126.886704
272.410646 319.021190 126.195099
272.410646 319.021190 127.445099
272.410646 320.271190 126.195099
272.410646 320.271190 127.445099
273.660646 319.021190 126.195099
273.660646 319.021190 127.445099
273.660646 320.271190 126.195099
273.660646 320.271190 127.445099
274.910646 319.021190 126.705109
274.910646 319.021190 127.955109
274.910646 320.271190 126.705109
274.910646 320.271190 127.955109
276.160646 319.021190 126.705109
276.160646 319.021190 127.955109
276.160646 320.271190 126.705109
276.160646 320.271190 127.955109
277.410646 319.021190 127.124878
277.410646 319.021190 128.374878
277.410646 320.271190 127.124878
277.410646 320.271190 128.374878
278.660646 319.021190 127.124878
278.660646 319.021190 128.374878
278.660646 320.271190 127.124878
278.660646 320.271190 128.374878
279.910646 319.021190 127.486680
279.910646 319.021190 128.736680
279.910646 320.271190 127.486680
279.910646 320.271190 128.736680
281.160646 319.021190 127.486680
281.160646 319.021190 128.736680
281.160646 320.271190 127.486680
281.160646 320.271190 128.736680
282.410646 319.021190 127.745392
282.410646 319.021190 128.995392
282.410646 320.271190 127.745392
282.410646 320.271190 128.995392
283.660646 319.021190 127.745392
283.660646 319.021190 128.995392
283.660646 320.271190 127.745392
283.660646 320.271190 128.995392
284.910646 319.021190 127.964126
284.910646 319.021190 129.214126
284.910646 320.271190 127.964126
284.910646 320.271190 129.214126
286.160646 319.021190 127.964126
286.160646 319.021190 129.214126
286.160646 320.271190 127.964126
286.160646 320.271190 129.214126
287.410646 319.021190 128.145188
287.410646 319.021190 129.395188
287.410646 320.271190 128.145188
287.410646 320.271190 129.395188
288.660646 319.021190 128.145188
288.660646 319.021190 129.395188
288.660646 320.271190 128.145188
288.660646 320.271190 129.395188
289.910646 319.021190 128.244507
289.910646 319.021190 129.494507
289.910646 320.271190 128.244507
289.910646 320.271190 129.494507
291.160646 319.021190 128.244507
291.160646 319.021190 129.494507
291.160646 320.271190 128.244507
291.160646 320.271190 129.494507
292.410646 319.021190 128.290573
292.410646 319.021190 129.540573
292.410646 320.271190 128.290573
292.410646 320.271190 129.540573
293.660646 319.021190 128.290573
293.660646 319.021190 129.540573
293.660646 320.271190 128.290573
293.660646 320.271190 129.540573
294.910646 319.021190 128.373459
294.910646 319.021190 129.623459
294.910646 320.271190 128.373459
294.910646 320.271190 129.623459
296.160646 319.021190 128.373459
296.160646 319.021190 129.623459
296.160646 320.271190 128.373459
296.160646 320.271190 129.623459
294.910646 319.021190 130.873459
294.910646 319.021190 132.123459
294.910646 320.271190 130.873459
294.910646 320.271190 132.123459
296.160646 319.021190 130.873459
296.160646 319.021190 132.123459
296.160646 320.271190 130.873459
296.160646 320.271190 132.123459
297.410646 319.021190 128.461319
297.410646 319.021190 129.711319
297.410646 320.271190 128.461319
297.410646 320.271190 129.711319
298.660646 319.021190 128.461319
298.660646 319.021190 129.711319
298.660646 320.271190 128.461319
298.660646 320.271190 129.711319
297.410646 319.021190 130.961319
297.410646 319.021190 132.211319
297.410646 320.271190 130.961319
297.410646 320.271190 132.211319
298.660646 319.021190 130.961319
298.660646 319.021190 132.211319
298.660646 320.271190 130.961319
298.660646 320.271190 132.211319
299.910646 319.021190 128.533157
299.910646 319.021190 129.783157
299.910646 320.271190 128.533157
299.910646 320.271190 129.783157
301.160646 319.021190 128.533157
301.160646 319.021190 129.783157
301.160646 320.271190 128.533157
301.160646 320.271190 129.783157
299.910646 319.021190 131.033157
299.910646 319.021190 132.283157
299.910646 320.271190 131.033157
299.910646 320.271190 132.283157
301.160646 319.021190 131.033157
301.160646 319.021190 132.283157
301.160646 320.271190 131.033157
301.160646 320.271190 132.283157
302.410646 319.021190 128.602356
302.410646 319.021190 129.852356
302.410646 320.271190 128.602356
302.410646 320.271190 129.852356
303.660646 319.021190 128.602356
303.660646 319.021190 129.852356
303.660646 320.271190 128.602356
303.660646 320.271190 129.852356
302.410646 319.021190 131.102356
302.410646 319.021190 132.352356
302.410646 320.271190 131.102356
302.410646 320.271190 132.352356
303.660646 319.021190 131.102356
303.660646 319.021190 132.352356
303.660646 320.271190 131.102356
303.660646 320.271190 132.352356
304.910646 319.021190 128.671539
304.910646 319.021190 129.921539
304.910646 320.271190 128.671539
304.910646 320.271190 129.921539
306.160646 319.021190 128.671539
306.160646 319.021190 129.921539
306.160646 320.271190 128.671539
306.160646 320.271190 129.921539
304.910646 319.021190 131.171539
304.910646 319.021190 132.421539
304.910646 320.271190 131.171539
304.910646 320.271190 132.421539
306.160646 319.021190 131.171539
306.160646 319.021190 132.421539
306.160646 320.271190 131.171539
306.160646 320.271190 132.421539
307.410646 319.021190 128.746521
307.410646 319.021190 129.996521
307.410646 320.271190 128.746521
307.410646 320.271190 129.996521
308.660646 319.021190 128.746521
308.660646 319.021190 129.996521
308.660646 320.271190 128.746521
308.660646 320.271190 129.996521
307.410646 319.021190 131.246521
307.410646 319.021190 132.496521
307.410646 320.271190 131.246521
307.410646 320.271190 132.496521
308.660646 319.021190 131.246521
308.660646 319.021190 132.496521
308.660646 320.271190 131.246521
308.660646 320.271190 132.496521
309.910646 319.021190 128.859925
309.910646 319.021190 130.109925
309.910646 320.271190 128.859925
309.910646 320.271190 130.109925
311.160646 319.021190 128.859925
311.160646 319.021190 130.109925
311.160646 320.271190 128.859925
311.160646 320.271190 130.109925
309.910646 319.021190 131.359925
309.910646 319.021190 132.609925
309.910646 320.271190 131.359925
309.910646 320.271190 132.609925
311.160646 319.021190 131.359925
311.160646 319.021190 132.609925
311.160646 320.271190 131.359925
311.160646 320.271190 132.609925
312.410646 319.021190 128.995071
312.410646 319.021190 130.245071
312.410646 320.271190 128.995071
312.410646 320.271190 130.245071
313.660646 319.021190 128.995071
313.660646 319.021190 130.245071
313.660646 320.271190 128.995071
313.660646 320.271190 130.245071
312.410646 319.021190 131.495071
312.410646 319.021190 132.745071
312.410646 320.271190 131.495071
312.410646 320.271190 132.745071
313.660646 319.021190 131.495071
313.660646 319.021190 132.745071
313.660646 320.271190 131.495071
313.660646 320.271190 132.745071
314.910646 319.021190 129.182251
314.910646 319.021190 130.432251
314.910646 320.271190 129.182251
314.910646 320.271190 130.432251
316.160646 319.021190 129.182251
316.160646 319.021190 130.432251
316.160646 320.271190 129.182251
316.160646 320.271190 130.432251
314.910646 319.021190 131.682251
314.910646 319.021190 132.932251
314.910646 320.271190 131.682251
314.910646 320.271190 132.932251
316.160646 319.021190 131.682251
316.160646 319.021190 132.932251
316.160646 320.271190 131.682251
316.160646 320.271190 132.932251
317.410646 319.021190 129.386856
317.410646 319.021190 130.636856
317.410646 320.271190 129.386856
317.410646 320.271190 130.636856
318.660646 319.021190 129.386856
318.660646 319.021190 130.636856
318.660646 320.271190 129.386856
318.660646 320.271190 130.636856
317.410646 319.021190 131.886856
317.410646 319.021190 133.136856
317.410646 320.271190 131.886856
317.410646 320.271190 133.136856
318.660646 319.021190 131.886856
318.660646 319.021190 133.136856
318.660646 320.271190 131.886856
318.660646 320.271190 133.136856
319.910646 319.021190 129.722244
319.910646 319.021190 130.972244
319.910646 320.271190 129.722244
319.910646 320.271190 130.972244
321.160646 319.021190 129.722244
321.160646 319.021190 130.972244
321.160646 320.271190 129.722244
321.160646 320.271190 130.972244
319.910646 319.021190 132.222244
319.910646 319.021190 133.472244
319.910646 320.271190 132.222244
319.910646 320.271190 133.472244
321.160646 319.021190 132.222244
321.160646 319.021190 133.472244
321.160646 320.271190 132.222244
321.160646 320.271190 133.472244
322.410646 319.021190 130.053345
322.410646 319.021190 131.303345
322.410646 320.271190 130.053345
322.410646 320.271190 131.303345
323.660646 319.021190 130.053345
323.660646 319.021190 131.303345
323.660646 320.271190 130.053345
323.660646 320.271190 131.303345
322.410646 319.021190 132.553345
322.410646 319.021190 133.803345
322.410646 320.271190 132.553345
322.410646 320.271190 133.803345
323.660646 319.021190 132.553345
323.660646 319.021190 133.803345
323.660646 320.271190 132.553345
