354.285646 323.396190 142.367020
351.785646 320.896190 144.867020
351.785646 320.896190 147.367020
351.785646 323.396190 144.867020
351.785646 323.396190 147.367020
354.285646 320.896190 144.867020
354.285646 320.896190 147.367020
354.285646 323.396190 144.867020
354.285646 323.396190 147.367020
356.785646 320.896190 140.820999
356.785646 320.896190 143.320999
356.785646 323.396190 140.820999
356.785646 323.396190 143.320999
359.285646 320.896190 140.820999
359.285646 320.896190 143.320999
359.285646 323.396190 140.820999
359.285646 323.396190 143.320999
356.785646 320.896190 145.820999
356.785646 320.896190 148.320999
356.785646 323.396190 145.820999
356.785646 323.396190 148.320999
359.285646 320.896190 145.820999
359.285646 320.896190 148.320999
359.285646 323.396190 145.820999
359.285646 323.396190 148.320999
361.785646 320.896190 142.070908
361.785646 320.896190 144.570908
361.785646 323.396190 142.070908
361.785646 323.396190 144.570908
364.285646 320.896190 142.070908
364.285646 320.896190 144.570908
364.285646 323.396190 142.070908
364.285646 323.396190 144.570908
361.785646 320.896190 147.070908
361.785646 320.896190 149.570908
361.785646 323.396190 147.070908
361.785646 323.396190 149.570908
364.285646 320.896190 147.070908
364.285646 320.896190 149.570908
364.285646 323.396190 147.070908
364.285646 323.396190 149.570908
366.785646 320.896190 144.584549
366.785646 320.896190 147.084549
366.785646 323.396190 144.584549
366.785646 323.396190 147.084549
369.285646 320.896190 144.584549
369.285646 320.896190 147.084549
369.285646 323.396190 144.584549
369.285646 323.396190 147.084549
366.785646 320.896190 149.584549
366.785646 320.896190 152.084549
366.785646 323.396190 149.584549
366.785646 323.396190 152.084549
369.285646 320.896190 149.584549
369.285646 320.896190 152.084549
369.285646 323.396190 149.584549
369.285646 323.396190 152.084549
371.785646 320.896190 149.657974
371.785646 320.896190 152.157974
371.785646 323.396190 149.657974
371.785646 323.396190 152.157974
374.285646 320.896190 149.657974
374.285646 320.896190 152.157974
374.285646 323.396190 149.657974
374.285646 323.396190 152.157974
371.785646 320.896190 154.657974
371.785646 320.896190 157.157974
371.785646 323.396190 154.657974
371.785646 323.396190 157.157974
374.285646 320.896190 154.657974
374.285646 320.896190 157.157974
374.285646 323.396190 154.657974
374.285646 323.396190 157.157974
376.785646 320.896190 152.276230
376.785646 320.896190 154.776230
376.785646 323.396190 152.276230
376.785646 323.396190 154.776230
379.285646 320.896190 152.276230
379.285646 320.896190 154.776230
379.285646 323.396190 152.276230
379.285646 323.396190 154.776230
376.785646 320.896190 157.276230
376.785646 320.896190 159.776230
376.785646 323.396190 157.276230
376.785646 323.396190 159.776230
379.285646 320.896190 157.276230
379.285646 320.896190 159.776230
379.285646 323.396190 157.276230
379.285646 323.396190 159.776230
381.785646 320.896190 156.427750
381.785646 320.896190 158.927750
381.785646 323.396190 156.427750
381.785646 323.396190 158.927750
384.285646 320.896190 156.427750
384.285646 320.896190 158.927750
384.285646 323.396190 156.427750
384.285646 323.396190 158.927750
386.785646 320.896190 160.894333
386.785646 320.896190 163.394333
386.785646 323.396190 160.894333
386.785646 323.396190 163.394333
389.285646 320.896190 160.894333
389.285646 320.896190 163.394333
389.285646 323.396190 160.894333
389.285646 323.396190 163.394333
276.785646 325.896190 131.733017
276.785646 325.896190 134.233017
276.785646 328.396190 131.733017
276.785646 328.396190 134.233017
279.285646 325.896190 131.733017
279.285646 325.896190 134.233017
279.285646 328.396190 131.733017
279.285646 328.396190 134.233017
281.785646 325.896190 132.039474
281.785646 325.896190 134.539474
281.785646 328.396190 132.039474
281.785646 328.396190 134.539474
284.285646 325.896190 132.039474
284.285646 325.896190 134.539474
284.285646 328.396190 132.039474
284.285646 328.396190 134.539474
286.785646 325.896190 132.404984
286.785646 325.896190 134.904984
286.785646 328.396190 132.404984
286.785646 328.396190 134.904984
289.285646 325.896190 132.404984
289.285646 325.896190 134.904984
289.285646 328.396190 132.404984
289.285646 328.396190 134.904984
291.785646 325.896190 132.747421
291.785646 325.896190 135.247421
291.785646 328.396190 132.747421
291.785646 328.396190 135.247421
294.285646 325.896190 132.747421
294.285646 325.896190 135.247421
294.285646 328.396190 132.747421
294.285646 328.396190 135.247421
296.785646 325.896190 133.522720
296.785646 325.896190 136.022720
296.785646 328.396190 133.522720
296.785646 328.396190 136.022720
299.285646 325.896190 133.522720
299.285646 325.896190 136.022720
299.285646 328.396190 133.522720
299.285646 328.396190 136.022720
301.785646 325.896190 134.125504
301.785646 325.896190 136.625504
301.785646 328.396190 134.125504
301.785646 328.396190 136.625504
304.285646 325.896190 134.125504
304.285646 325.896190 136.625504
304.285646 328.396190 134.125504
304.285646 328.396190 136.625504
306.785646 325.896190 134.569107
306.785646 325.896190 137.069107
306.785646 328.396190 134.569107
306.785646 328.396190 137.069107
309.285646 325.896190 134.569107
309.285646 325.896190 137.069107
309.285646 328.396190 134.569107
309.285646 328.396190 137.069107
311.785646 325.896190 135.058456
311.785646 325.896190 137.558456
311.785646 328.396190 135.058456
311.785646 328.396190 137.558456
314.285646 325.896190 135.058456
314.285646 325.896190 137.558456
314.285646 328.396190 135.058456
314.285646 328.396190 137.558456
316.785646 325.896190 135.709793
316.785646 325.896190 138.209793
316.785646 328.396190 135.709793
316.785646 328.396190 138.209793
319.285646 325.896190 135.709793
319.285646 325.896190 138.209793
319.285646 328.396190 135.709793
319.285646 328.396190 138.209793
321.785646 325.896190 136.563004
321.785646 325.896190 139.063004
321.785646 328.396190 136.563004
321.785646 328.396190 139.063004
324.285646 325.896190 136.563004
324.285646 325.896190 139.063004
324.285646 328.396190 136.563004
324.285646 328.396190 139.063004
326.785646 325.896190 137.566788
326.785646 325.896190 140.066788
326.785646 328.396190 137.566788
326.785646 328.396190 140.066788
329.285646 325.896190 137.566788
329.285646 325.896190 140.066788
329.285646 328.396190 137.566788
329.285646 328.396190 140.066788
326.785646 325.896190 142.566788
326.785646 325.896190 145.066788
326.785646 328.396190 142.566788
326.785646 328.396190 145.066788
329.285646 325.896190 142.566788
329.285646 325.896190 145.066788
329.285646 328.396190 142.566788
329.285646 328.396190 145.066788
331.785646 325.896190 138.524979
331.785646 325.896190 141.024979
331.785646 328.396190 138.524979
331.785646 328.396190 141.024979
334.285646 325.896190 138.524979
334.285646 325.896190 141.024979
334.285646 328.396190 138.524979
334.285646 328.396190 141.024979
331.785646 325.896190 143.524979
331.785646 325.896190 146.024979
331.785646 328.396190 143.524979
331.785646 328.396190 146.024979
334.285646 325.896190 143.524979
334.285646 325.896190 146.024979
334.285646 328.396190 143.524979
334.285646 328.396190 146.024979
336.785646 325.896190 139.382645
336.785646 325.896190 141.882645
336.785646 328.396190 139.382645
336.785646 328.396190 141.882645
339.285646 325.896190 139.382645
339.285646 325.896190 141.882645
339.285646 328.396190 139.382645
339.285646 328.396190 141.882645
336.785646 325.896190 144.382645
336.785646 325.896190 146.882645
336.785646 328.396190 144.382645
336.785646 328.396190 146.882645
339.285646 325.896190 144.382645
339.285646 325.896190 146.882645
339.285646 328.396190 144.382645
339.285646 328.396190 146.882645
341.785646 325.896190 140.280319
341.785646 325.896190 142.780319
341.785646 328.396190 140.280319
341.785646 328.396190 142.780319
344.285646 325.896190 140.280319
344.285646 325.896190 142.780319
344.285646 328.396190 140.280319
344.285646 328.396190 142.780319
341.785646 325.896190 145.280319
341.785646 325.896190 147.780319
341.785646 328.396190 145.280319
341.785646 328.396190 147.780319
344.285646 325.896190 145.280319
344.285646 325.896190 147.780319
344.285646 328.396190 145.280319
344.285646 328.396190 147.780319
346.785646 325.896190 141.141953
346.785646 325.896190 143.641953
346.785646 328.396190 141.141953
346.785646 328.396190 143.641953
349.285646 325.896190 141.141953
349.285646 325.896190 143.641953
349.285646 328.396190 141.141953
349.285646 328.396190 143.641953
346.785646 325.896190 146.141953
346.785646 325.896190 148.641953
346.785646 328.396190 146.141953
346.785646 328.396190 148.641953
349.285646 325.896190 146.141953
349.285646 325.896190 148.641953
349.285646 328.396190 146.141953
349.285646 328.396190 148.641953
351.785646 325.896190 142.022324
351.785646 325.896190 144.522324
351.785646 328.396190 142.022324
351.785646 328.396190 144.522324
354.285646 325.896190 142.022324
354.285646 325.896190 144.522324
354.285646 328.396190 142.022324
354.285646 328.396190 144.522324
351.785646 325.896190 147.022324
351.785646 325.896190 149.522324
351.785646 328.396190 147.022324
351.785646 328.396190 149.522324
354.285646 325.896190 147.022324
354.285646 325.896190 149.522324
354.285646 328.396190 147.022324
354.285646 328.396190 149.522324
356.785646 325.896190 143.422409
356.785646 325.896190 145.922409
356.785646 328.396190 143.422409
356.785646 328.396190 145.922409
359.285646 325.896190 143.422409
359.285646 325.896190 145.922409
359.285646 328.396190 143.422409
359.285646 328.396190 145.922409
356.785646 325.896190 148.422409
356.785646 325.896190 150.922409
356.785646 328.396190 148.422409
356.785646 328.396190 150.922409
359.285646 325.896190 148.422409
359.285646 325.896190 150.922409
359.285646 328.396190 148.422409
359.285646 328.396190 150.922409
361.785646 325.896190 146.581100
361.785646 325.896190 149.081100
361.785646 328.396190 146.581100
361.785646 328.396190 149.081100
364.285646 325.896190 146.581100
364.285646 325.896190 149.081100
364.285646 328.396190 146.581100
364.285646 328.396190 149.081100
361.785646 325.896190 151.581100
361.785646 325.896190 154.081100
361.785646 328.396190 151.581100
361.785646 328.396190 154.081100
364.285646 325.896190 151.581100
364.285646 325.896190 154.081100
364.285646 328.396190 151.581100
364.285646 328.396190 154.081100
366.785646 325.896190 150.091537
366.785646 325.896190 152.591537
366.785646 328.396190 150.091537
366.785646 328.396190 152.591537
369.285646 325.896190 150.091537
369.285646 325.896190 152.591537
369.285646 328.396190 150.091537
369.285646 328.396190 152.591537
366.785646 325.896190 155.091537
366.785646 325.896190 157.591537
366.785646 328.396190 155.091537
366.785646 328.396190 157.591537
369.285646 325.896190 155.091537
369.285646 325.896190 157.591537
369.285646 328.396190 155.091537
369.285646 328.396190 157.591537
371.785646 325.896190 152.453354
371.785646 325.896190 154.953354
371.785646 328.396190 152.453354
371.785646 328.396190 154.953354
374.285646 325.896190 152.453354
374.285646 325.896190 154.953354
374.285646 328.396190 152.453354
374.285646 328.396190 154.953354
371.785646 325.896190 157.453354
371.785646 325.896190 159.953354
371.785646 328.396190 157.453354
371.785646 328.396190 159.953354
374.285646 325.896190 157.453354
374.285646 325.896190 159.953354
374.285646 328.396190 157.453354
374.285646 328.396190 159.953354
376.785646 325.896190 156.522934
376.785646 325.896190 159.022934
376.785646 328.396190 156.522934
376.785646 328.396190 159.022934
379.285646 325.896190 156.522934
379.285646 325.896190 159.022934
379.285646 328.396190 156.522934
379.285646 328.396190 159.022934
376.785646 325.896190 161.522934
376.785646 325.896190 164.022934
376.785646 328.396190 161.522934
376.785646 328.396190 164.022934
379.285646 325.896190 161.522934
379.285646 325.896190 164.022934
379.285646 328.396190 161.522934
379.285646 328.396190 164.022934
381.785646 325.896190 160.730179
381.785646 325.896190 163.230179
381.785646 328.396190 160.730179
381.785646 328.396190 163.230179
384.285646 325.896190 160.730179
384.285646 325.896190 163.230179
384.285646 328.396190 160.730179
384.285646 328.396190 163.230179
266.785646 330.896190 133.791153
266.785646 330.896190 136.291153
266.785646 333.396190 133.791153
266.785646 333.396190 136.291153
269.285646 330.896190 133.791153
269.285646 330.896190 136.291153
269.285646 333.396190 133.791153
269.285646 333.396190 136.291153
271.785646 330.896190 133.849197
271.785646 330.896190 136.349197
271.785646 333.396190 133.849197
271.785646 333.396190 136.349197
274.285646 330.896190 133.849197
274.285646 330.896190 136.349197
274.285646 333.396190 133.849197
274.285646 333.396190 136.349197
276.785646 330.896190 134.175491
276.785646 330.896190 136.675491
276.785646 333.396190 134.175491
276.785646 333.396190 136.675491
279.285646 330.896190 134.175491
279.285646 330.896190 136.675491
279.285646 333.396190 134.175491
279.285646 333.396190 136.675491
281.785646 330.896190 134.695328
281.785646 330.896190 137.195328
281.785646 333.396190 134.695328
281.785646 333.396190 137.195328
284.285646 330.896190 134.695328
284.285646 330.896190 137.195328
284.285646 333.396190 134.695328
284.285646 333.396190 137.195328
286.785646 330.896190 135.780197
286.785646 330.896190 138.280197
286.785646 333.396190 135.780197
286.785646 333.396190 138.280197
289.285646 330.896190 135.780197
289.285646 330.896190 138.280197
289.285646 333.396190 135.780197
289.285646 333.396190 138.280197
291.785646 330.896190 136.465500
291.785646 330.896190 138.965500
291.785646 333.396190 136.465500
291.785646 333.396190 138.965500
294.285646 330.896190 136.465500
294.285646 330.896190 138.965500
294.285646 333.396190 136.465500
294.285646 333.396190 138.965500
296.785646 330.896190 137.060287
296.785646 330.896190 139.560287
296.785646 333.396190 137.060287
296.785646 333.396190 139.560287
299.285646 330.896190 137.060287
299.285646 330.896190 139.560287
299.285646 333.396190 137.060287
299.285646 333.396190 139.560287
301.785646 330.896190 137.573105
301.785646 330.896190 140.073105
301.785646 333.396190 137.573105
301.785646 333.396190 140.073105
304.285646 330.896190 137.573105
304.285646 330.896190 140.073105
304.285646 333.396190 137.573105
304.285646 333.396190 140.073105
306.785646 330.896190 138.064133
306.785646 330.896190 140.564133
306.785646 333.396190 138.064133
306.785646 333.396190 140.564133
309.285646 330.896190 138.064133
309.285646 330.896190 140.564133
309.285646 333.396190 138.064133
309.285646 333.396190 140.564133
311.785646 330.896190 138.484116
311.785646 330.896190 140.984116
311.785646 333.396190 138.484116
311.785646 333.396190 140.984116
314.285646 330.896190 138.484116
314.285646 330.896190 140.984116
314.285646 333.396190 138.484116
314.285646 333.396190 140.984116
311.785646 330.896190 143.484116
311.785646 330.896190 145.984116
311.785646 333.396190 143.484116
311.785646 333.396190 145.984116
314.285646 330.896190 143.484116
314.285646 330.896190 145.984116
314.285646 333.396190 143.484116
314.285646 333.396190 145.984116
316.785646 330.896190 138.992966
316.785646 330.896190 141.492966
316.785646 333.396190 138.992966
316.785646 333.396190 141.492966
319.285646 330.896190 138.992966
319.285646 330.896190 141.492966
319.285646 333.396190 138.992966
319.285646 333.396190 141.492966
316.785646 330.896190 143.992966
316.785646 330.896190 146.492966
316.785646 333.396190 143.992966
316.785646 333.396190 146.492966
319.285646 330.896190 143.992966
319.285646 330.896190 146.492966
319.285646 333.396190 143.992966
319.285646 333.396190 146.492966
321.785646 330.896190 139.478256
321.785646 330.896190 141.978256
321.785646 333.396190 139.478256
321.785646 333.396190 141.978256
324.285646 330.896190 139.478256
324.285646 330.896190 141.978256
324.285646 333.396190 139.478256
324.285646 333.396190 141.978256
321.785646 330.896190 144.478256
321.785646 330.896190 146.978256
321.785646 333.396190 144.478256
321.785646 333.396190 146.978256
324.285646 330.896190 144.478256
324.285646 330.896190 146.978256
324.285646 333.396190 144.478256
324.285646 333.396190 146.978256
326.785646 330.896190 140.230545
326.785646 330.896190 142.730545
326.785646 333.396190 140.230545
326.785646 333.396190 142.730545
329.285646 330.896190 140.230545
329.285646 330.896190 142.730545
329.285646 333.396190 140.230545
329.285646 333.396190 142.730545
326.785646 330.896190 145.230545
326.785646 330.896190 147.730545
326.785646 333.396190 145.230545
326.785646 333.396190 147.730545
329.285646 330.896190 145.230545
329.285646 330.896190 147.730545
329.285646 333.396190 145.230545
329.285646 333.396190 147.730545
331.785646 330.896190 140.963303
331.785646 330.896190 143.463303
331.785646 333.396190 140.963303
331.785646 333.396190 143.463303
334.285646 330.896190 140.963303
334.285646 330.896190 143.463303
334.285646 333.396190 140.963303
334.285646 333.396190 143.463303
331.785646 330.896190 145.963303
331.785646 330.896190 148.463303
331.785646 333.396190 145.963303
331.785646 333.396190 148.463303
334.285646 330.896190 145.963303
334.285646 330.896190 148.463303
334.285646 333.396190 145.963303
334.285646 333.396190 148.463303
336.785646 330.896190 141.689468
336.785646 330.896190 144.189468
336.785646 333.396190 141.689468
336.785646 333.396190 144.189468
339.285646 330.896190 141.689468
339.285646 330.896190 144.189468
339.285646 333.396190 141.689468
339.285646 333.396190 144.189468
336.785646 330.896190 146.689468
336.785646 330.896190 149.189468
336.785646 333.396190 146.689468
336.785646 333.396190 149.189468
339.285646 330.896190 146.689468
339.285646 330.896190 149.189468
339.285646 333.396190 146.689468
339.285646 333.396190 149.189468
341.785646 330.896190 142.493790
341.785646 330.896190 144.993790
341.785646 333.396190 142.493790
341.785646 333.396190 144.993790
344.285646 330.896190 142.493790
344.285646 330.896190 144.993790
344.285646 333.396190 142.493790
344.285646 333.396190 144.993790
341.785646 330.896190 147.493790
341.785646 330.896190 149.993790
341.785646 333.396190 147.493790
341.785646 333.396190 149.993790
344.285646 330.896190 147.493790
344.285646 330.896190 149.993790
344.285646 333.396190 147.493790
344.285646 333.396190 149.993790
346.785646 330.896190 143.535355
346.785646 330.896190 146.035355
346.785646 333.396190 143.535355
346.785646 333.396190 146.035355
349.285646 330.896190 143.535355
349.285646 330.896190 146.035355
349.285646 333.396190 143.535355
349.285646 333.396190 146.035355
346.785646 330.896190 148.535355
346.785646 330.896190 151.035355
346.785646 333.396190 148.535355
346.785646 333.396190 151.035355
349.285646 330.896190 148.535355
349.285646 330.896190 151.035355
349.285646 333.396190 148.535355
349.285646 333.396190 151.035355
351.785646 330.896190 145.279221
351.785646 330.896190 147.779221
351.785646 333.396190 145.279221
351.785646 333.396190 147.779221
354.285646 330.896190 145.279221
354.285646 330.896190 147.779221
354.285646 333.396190 145.279221
354.285646 333.396190 147.779221
351.785646 330.896190 150.279221
351.785646 330.896190 152.779221
351.785646 333.396190 150.279221
351.785646 333.396190 152.779221
354.285646 330.896190 150.279221
354.285646 330.896190 152.779221
354.285646 333.396190 150.279221
354.285646 333.396190 152.779221
356.785646 330.896190 148.702530
356.785646 330.896190 151.202530
356.785646 333.396190 148.702530
356.785646 333.396190 151.202530
359.285646 330.896190 148.702530
359.285646 330.896190 151.202530
359.285646 333.396190 148.702530
359.285646 333.396190 151.202530
356.785646 330.896190 153.702530
356.785646 330.896190 156.202530
356.785646 333.396190 153.702530
356.785646 333.396190 156.202530
359.285646 330.896190 153.702530
359.285646 330.896190 156.202530
359.285646 333.396190 153.702530
359.285646 333.396190 156.202530
361.785646 330.896190 151.136063
361.785646 330.896190 153.636063
361.785646 333.396190 151.136063
361.785646 333.396190 153.636063
364.285646 330.896190 151.136063
364.285646 330.896190 153.636063
364.285646 333.396190 151.136063
364.285646 333.396190 153.636063
361.785646 330.896190 156.136063
361.785646 330.896190 158.636063
361.785646 333.396190 156.136063
361.785646 333.396190 158.636063
364.285646 330.896190 156.136063
364.285646 330.896190 158.636063
364.285646 333.396190 156.136063
364.285646 333.396190 158.636063
366.785646 330.896190 153.663467
366.785646 330.896190 156.163467
366.785646 333.396190 153.663467
366.785646 333.396190 156.163467
369.285646 330.896190 153.663467
369.285646 330.896190 156.163467
369.285646 333.396190 153.663467
369.285646 333.396190 156.163467
366.785646 330.896190 158.663467
366.785646 330.896190 161.163467
366.785646 333.396190 158.663467
366.785646 333.396190 161.163467
369.285646 330.896190 158.663467
369.285646 330.896190 161.163467
369.285646 333.396190 158.663467
369.285646 333.396190 161.163467
371.785646 330.896190 156.733597
371.785646 330.896190 159.233597
371.785646 333.396190 156.733597
371.785646 333.396190 159.233597
374.285646 330.896190 156.733597
374.285646 330.896190 159.233597
374.285646 333.396190 156.733597
374.285646 333.396190 159.233597
371.785646 330.896190 161.733597
371.785646 330.896190 164.233597
371.785646 333.396190 161.733597
371.785646 333.396190 164.233597
374.285646 330.896190 161.733597
374.285646 330.896190 164.233597
374.285646 333.396190 161.733597
374.285646 333.396190 164.233597
376.785646 330.896190 160.580948
376.785646 330.896190 163.080948
376.785646 333.396190 160.580948
376.785646 333.396190 163.080948
379.285646 330.896190 160.580948
379.285646 330.896190 163.080948
379.285646 333.396190 160.580948
379.285646 333.396190 163.080948
381.785646 330.896190 166.294052
381.785646 330.896190 168.794052
381.785646 333.396190 166.294052
381.785646 333.396190 168.794052
384.285646 330.896190 166.294052
384.285646 330.896190 168.794052
384.285646 333.396190 166.294052
384.285646 333.396190 168.794052
261.785646 335.896190 137.067001
261.785646 335.896190 139.567001
261.785646 338.396190 137.067001
261.785646 338.396190 139.567001
264.285646 335.896190 137.067001
264.285646 335.896190 139.567001
264.285646 338.396190 137.067001
264.285646 338.396190 139.567001
266.785646 335.896190 136.738235
266.785646 335.896190 139.238235
266.785646 338.396190 136.738235
266.785646 338.396190 139.238235
269.285646 335.896190 136.738235
269.285646 335.896190 139.238235
269.285646 338.396190 136.738235
269.285646 338.396190 139.238235
271.785646 335.896190 137.150040
271.785646 335.896190 139.650040
271.785646 338.396190 137.150040
271.785646 338.396190 139.650040
274.285646 335.896190 137.150040
274.285646 335.896190 139.650040
274.285646 338.396190 137.150040
274.285646 338.396190 139.650040
276.785646 335.896190 137.943954
276.785646 335.896190 140.443954
276.785646 338.396190 137.943954
276.785646 338.396190 140.443954
279.285646 335.896190 137.943954
279.285646 335.896190 140.443954
279.285646 338.396190 137.943954
279.285646 338.396190 140.443954
281.785646 335.896190 138.745987
281.785646 335.896190 141.245987
281.785646 338.396190 138.745987
281.785646 338.396190 141.245987
284.285646 335.896190 138.745987
284.285646 335.896190 141.245987
284.285646 338.396190 138.745987
284.285646 338.396190 141.245987
286.785646 335.896190 138.969589
286.785646 335.896190 141.469589
286.785646 338.396190 138.969589
286.785646 338.396190 141.469589
289.285646 335.896190 138.969589
289.285646 335.896190 141.469589
289.285646 338.396190 138.969589
289.285646 338.396190 141.469589
291.785646 335.896190 139.193222
291.785646 335.896190 141.693222
291.785646 338.396190 139.193222
291.785646 338.396190 141.693222
294.285646 335.896190 139.193222
294.285646 335.896190 141.693222
294.285646 338.396190 139.193222
294.285646 338.396190 141.693222
296.785646 335.896190 139.453140
296.785646 335.896190 141.953140
296.785646 338.396190 139.453140
296.785646 338.396190 141.953140
299.285646 335.896190 139.453140
299.285646 335.896190 141.953140
299.285646 338.396190 139.453140
299.285646 338.396190 141.953140
296.785646 335.896190 144.453140
296.785646 335.896190 146.953140
296.785646 338.396190 144.453140
296.785646 338.396190 146.953140
299.285646 335.896190 144.453140
299.285646 335.896190 146.953140
299.285646 338.396190 144.453140
299.285646 338.396190 146.953140
301.785646 335.896190 139.747513
301.785646 335.896190 142.247513
301.785646 338.396190 139.747513
301.785646 338.396190 142.247513
304.285646 335.896190 139.747513
304.285646 335.896190 142.247513
304.285646 338.396190 139.747513
304.285646 338.396190 142.247513
301.785646 335.896190 144.747513
301.785646 335.896190 147.247513
301.785646 338.396190 144.747513
301.785646 338.396190 147.247513
304.285646 335.896190 144.747513
304.285646 335.896190 147.247513
304.285646 338.396190 144.747513
304.285646 338.396190 147.247513
306.785646 335.896190 140.107712
306.785646 335.896190 142.607712
306.785646 338.396190 140.107712
306.785646 338.396190 142.607712
309.285646 335.896190 140.107712
309.285646 335.896190 142.607712
309.285646 338.396190 140.107712
309.285646 338.396190 142.607712
306.785646 335.896190 145.107712
306.785646 335.896190 147.607712
306.785646 338.396190 145.107712
306.785646 338.396190 147.607712
309.285646 335.896190 145.107712
309.285646 335.896190 147.607712
309.285646 338.396190 145.107712
309.285646 338.396190 147.607712
311.785646 335.896190 140.514603
311.785646 335.896190 143.014603
311.785646 338.396190 140.514603
311.785646 338.396190 143.014603
314.285646 335.896190 140.514603
314.285646 335.896190 143.014603
314.285646 338.396190 140.514603
314.285646 338.396190 143.014603
311.785646 335.896190 145.514603
311.785646 335.896190 148.014603
311.785646 338.396190 145.514603
311.785646 338.396190 148.014603
314.285646 335.896190 145.514603
314.285646 335.896190 148.014603
314.285646 338.396190 145.514603
314.285646 338.396190 148.014603
316.785646 335.896190 141.141922
316.785646 335.896190 143.641922
316.785646 338.396190 141.141922
316.785646 338.396190 143.641922
319.285646 335.896190 141.141922
319.285646 335.896190 143.641922
319.285646 338.396190 141.141922
319.285646 338.396190 143.641922
316.785646 335.896190 146.141922
316.785646 335.896190 148.641922
316.785646 338.396190 146.141922
316.785646 338.396190 148.641922
319.285646 335.896190 146.141922
319.285646 335.896190 148.641922
319.285646 338.396190 146.141922
319.285646 338.396190 148.641922
321.785646 335.896190 141.946640
321.785646 335.896190 144.446640
321.785646 338.396190 141.946640
321.785646 338.396190 144.446640
324.285646 335.896190 141.946640
324.285646 335.896190 144.446640
324.285646 338.396190 141.946640
324.285646 338.396190 144.446640
321.785646 335.896190 146.946640
321.785646 335.896190 149.446640
321.785646 338.396190 146.946640
321.785646 338.396190 149.446640
324.285646 335.896190 146.946640
324.285646 335.896190 149.446640
324.285646 338.396190 146.946640
324.285646 338.396190 149.446640
326.785646 335.896190 142.596786
326.785646 335.896190 145.096786
326.785646 338.396190 142.596786
326.785646 338.396190 145.096786
329.285646 335.896190 142.596786
329.285646 335.896190 145.096786
329.285646 338.396190 142.596786
329.285646 338.396190 145.096786
326.785646 335.896190 147.596786
326.785646 335.896190 150.096786
326.785646 338.396190 147.596786
326.785646 338.396190 150.096786
329.285646 335.896190 147.596786
329.285646 335.896190 150.096786
329.285646 338.396190 147.596786
329.285646 338.396190 150.096786
331.785646 335.896190 143.778885
331.785646 335.896190 146.278885
331.785646 338.396190 143.778885
331.785646 338.396190 146.278885
334.285646 335.896190 143.778885
334.285646 335.896190 146.278885
334.285646 338.396190 143.778885
334.285646 338.396190 146.278885
331.785646 335.896190 148.778885
331.785646 335.896190 151.278885
331.785646 338.396190 148.778885
331.785646 338.396190 151.278885
334.285646 335.896190 148.778885
334.285646 335.896190 151.278885
334.285646 338.396190 148.778885
334.285646 338.396190 151.278885
336.785646 335.896190 144.872391
336.785646 335.896190 147.372391
336.785646 338.396190 144.872391
336.785646 338.396190 147.372391
339.285646 335.896190 144.872391
339.285646 335.896190 147.372391
339.285646 338.396190 144.872391
339.285646 338.396190 147.372391
336.785646 335.896190 149.872391
336.785646 335.896190 152.372391
336.785646 338.396190 149.872391
336.785646 338.396190 152.372391
339.285646 335.896190 149.872391
339.285646 335.896190 152.372391
339.285646 338.396190 149.872391
339.285646 338.396190 152.372391
341.785646 335.896190 146.101395
341.785646 335.896190 148.601395
341.785646 338.396190 146.101395
341.785646 338.396190 148.601395
344.285646 335.896190 146.101395
344.285646 335.896190 148.601395
344.285646 338.396190 146.101395
344.285646 338.396190 148.601395
341.785646 335.896190 151.101395
341.785646 335.896190 153.601395
341.785646 338.396190 151.101395
341.785646 338.396190 153.601395
344.285646 335.896190 151.101395
344.285646 335.896190 153.601395
344.285646 338.396190 151.101395
344.285646 338.396190 153.601395
346.785646 335.896190 148.318893
346.785646 335.896190 150.818893
346.785646 338.396190 148.318893
346.785646 338.396190 150.818893
349.285646 335.896190 148.318893
349.285646 335.896190 150.818893
349.285646 338.396190 148.318893
349.285646 338.396190 150.818893
346.785646 335.896190 153.318893
346.785646 335.896190 155.818893
346.785646 338.396190 153.318893
346.785646 338.396190 155.818893
349.285646 335.896190 153.318893
349.285646 335.896190 155.818893
349.285646 338.396190 153.318893
349.285646 338.396190 155.818893
351.785646 335.896190 150.176743
351.785646 335.896190 152.676743
351.785646 338.396190 150.176743
351.785646 338.396190 152.676743
354.285646 335.896190 150.176743
354.285646 335.896190 152.676743
354.285646 338.396190 150.176743
354.285646 338.396190 152.676743
351.785646 335.896190 155.176743
351.785646 335.896190 157.676743
351.785646 338.396190 155.176743
351.785646 338.396190 157.676743
354.285646 335.896190 155.176743
354.285646 335.896190 157.676743
354.285646 338.396190 155.176743
354.285646 338.396190 157.676743
356.785646 335.896190 152.157455
356.785646 335.896190 154.657455
356.785646 338.396190 152.157455
356.785646 338.396190 154.657455
359.285646 335.896190 152.157455
359.285646 335.896190 154.657455
359.285646 338.396190 152.157455
359.285646 338.396190 154.657455
356.785646 335.896190 157.157455
356.785646 335.896190 159.657455
356.785646 338.396190 157.157455
356.785646 338.396190 159.657455
359.285646 335.896190 157.157455
359.285646 335.896190 159.657455
359.285646 338.396190 157.157455
359.285646 338.396190 159.657455
361.785646 335.896190 155.136398
361.785646 335.896190 157.636398
361.785646 338.396190 155.136398
361.785646 338.396190 157.636398
364.285646 335.896190 155.136398
364.285646 335.896190 157.636398
364.285646 338.396190 155.136398
364.285646 338.396190 157.636398
361.785646 335.896190 160.136398
361.785646 335.896190 162.636398
361.785646 338.396190 160.136398
361.785646 338.396190 162.636398
364.285646 335.896190 160.136398
364.285646 335.896190 162.636398
364.285646 338.396190 160.136398
364.285646 338.396190 162.636398
366.785646 335.896190 157.939133
366.785646 335.896190 160.439133
366.785646 338.396190 157.939133
366.785646 338.396190 160.439133
369.285646 335.896190 157.939133
369.285646 335.896190 160.439133
369.285646 338.396190 157.939133
369.285646 338.396190 160.439133
366.785646 335.896190 162.939133
366.785646 335.896190 165.439133
366.785646 338.396190 162.939133
366.785646 338.396190 165.439133
369.285646 335.896190 162.939133
369.285646 335.896190 165.439133
369.285646 338.396190 162.939133
369.285646 338.396190 165.439133
371.785646 335.896190 162.359238
371.785646 335.896190 164.859238
371.785646 338.396190 162.359238
371.785646 338.396190 164.859238
374.285646 335.896190 162.359238
374.285646 335.896190 164.859238
374.285646 338.396190 162.359238
374.285646 338.396190 164.859238
256.785646 340.896190 140.218826
256.785646 340.896190 142.718826
256.785646 343.396190 140.218826
256.785646 343.396190 142.718826
259.285646 340.896190 140.218826
259.285646 340.896190 142.718826
259.285646 343.396190 140.218826
259.285646 343.396190 142.718826
261.785646 340.896190 139.759598
261.785646 340.896190 142.259598
261.785646 343.396190 139.759598
261.785646 343.396190 142.259598
264.285646 340.896190 139.759598
264.285646 340.896190 142.259598
264.285646 343.396190 139.759598
264.285646 343.396190 142.259598
266.785646 340.896190 139.600449
266.785646 340.896190 142.100449
266.785646 343.396190 139.600449
266.785646 343.396190 142.100449
269.285646 340.896190 139.600449
269.285646 340.896190 142.100449
269.285646 343.396190 139.600449
269.285646 343.396190 142.100449
271.785646 340.896190 139.924850
271.785646 340.896190 142.424850
271.785646 343.396190 139.924850
271.785646 343.396190 142.424850
274.285646 340.896190 139.924850
274.285646 340.896190 142.424850
274.285646 343.396190 139.924850
274.285646 343.396190 142.424850
276.785646 340.896190 140.268661
276.785646 340.896190 142.768661
276.785646 343.396190 140.268661
276.785646 343.396190 142.768661
279.285646 340.896190 140.268661
279.285646 340.896190 142.768661
279.285646 343.396190 140.268661
279.285646 343.396190 142.768661
281.785646 340.896190 140.477554
281.785646 340.896190 142.977554
281.785646 343.396190 140.477554
281.785646 343.396190 142.977554
284.285646 340.896190 140.477554
284.285646 340.896190 142.977554
284.285646 343.396190 140.477554
284.285646 343.396190 142.977554
281.785646 340.896190 145.477554
281.785646 340.896190 147.977554
281.785646 343.396190 145.477554
281.785646 343.396190 147.977554
284.285646 340.896190 145.477554
284.285646 340.896190 147.977554
284.285646 343.396190 145.477554
284.285646 343.396190 147.977554
286.785646 340.896190 140.686478
286.785646 340.896190 143.186478
286.785646 343.396190 140.686478
286.785646 343.396190 143.186478
289.285646 340.896190 140.686478
289.285646 340.896190 143.186478
289.285646 343.396190 140.686478
289.285646 343.396190 143.186478
286.785646 340.896190 145.686478
286.785646 340.896190 148.186478
286.785646 343.396190 145.686478
286.785646 343.396190 148.186478
289.285646 340.896190 145.686478
289.285646 340.896190 148.186478
289.285646 343.396190 145.686478
289.285646 343.396190 148.186478
291.785646 340.896190 141.054886
291.785646 340.896190 143.554886
291.785646 343.396190 141.054886
291.785646 343.396190 143.554886
294.285646 340.896190 141.054886
294.285646 340.896190 143.554886
294.285646 343.396190 141.054886
294.285646 343.396190 143.554886
291.785646 340.896190 146.054886
291.785646 340.896190 148.554886
291.785646 343.396190 146.054886
291.785646 343.396190 148.554886
294.285646 340.896190 146.054886
294.285646 340.896190 148.554886
294.285646 343.396190 146.054886
294.285646 343.396190 148.554886
296.785646 340.896190 141.539047
296.785646 340.896190 144.039047
296.785646 343.396190 141.539047
296.785646 343.396190 144.039047
299.285646 340.896190 141.539047
299.285646 340.896190 144.039047
299.285646 343.396190 141.539047
299.285646 343.396190 144.039047
296.785646 340.896190 146.539047
296.785646 340.896190 149.039047
296.785646 343.396190 146.539047
296.785646 343.396190 149.039047
299.285646 340.896190 146.539047
299.285646 340.896190 149.039047
299.285646 343.396190 146.539047
299.285646 343.396190 149.039047
301.785646 340.896190 141.977280
301.785646 340.896190 144.477280
301.785646 343.396190 141.977280
301.785646 343.396190 144.477280
304.285646 340.896190 141.977280
304.285646 340.896190 144.477280
304.285646 343.396190 141.977280
304.285646 343.396190 144.477280
301.785646 340.896190 146.977280
301.785646 340.896190 149.477280
301.785646 343.396190 146.977280
301.785646 343.396190 149.477280
304.285646 340.896190 146.977280
304.285646 340.896190 149.477280
304.285646 343.396190 146.977280
304.285646 343.396190 149.477280
306.785646 340.896190 142.423080
306.785646 340.896190 144.923080
306.785646 343.396190 142.423080
306.785646 343.396190 144.923080
309.285646 340.896190 142.423080
309.285646 340.896190 144.923080
309.285646 343.396190 142.423080
309.285646 343.396190 144.923080
306.785646 340.896190 147.423080
306.785646 340.896190 149.923080
306.785646 343.396190 147.423080
306.785646 343.396190 149.923080
309.285646 340.896190 147.423080
309.285646 340.896190 149.923080
309.285646 343.396190 147.423080
309.285646 343.396190 149.923080
311.785646 340.896190 143.231400
311.785646 340.896190 145.731400
311.785646 343.396190 143.231400
311.785646 343.396190 145.731400
314.285646 340.896190 143.231400
314.285646 340.896190 145.731400
314.285646 343.396190 143.231400
314.285646 343.396190 145.731400
311.785646 340.896190 148.231400
311.785646 340.896190 150.731400
311.785646 343.396190 148.231400
311.785646 343.396190 150.731400
314.285646 340.896190 148.231400
314.285646 340.896190 150.731400
314.285646 343.396190 148.231400
314.285646 343.396190 150.731400
316.785646 340.896190 144.158615
316.785646 340.896190 146.658615
316.785646 343.396190 144.158615
316.785646 343.396190 146.658615
319.285646 340.896190 144.158615
319.285646 340.896190 146.658615
319.285646 343.396190 144.158615
319.285646 343.396190 146.658615
316.785646 340.896190 149.158615
316.785646 340.896190 151.658615
316.785646 343.396190 149.158615
316.785646 343.396190 151.658615
319.285646 340.896190 149.158615
319.285646 340.896190 151.658615
319.285646 343.396190 149.158615
319.285646 343.396190 151.658615
321.785646 340.896190 145.285782
321.785646 340.896190 147.785782
321.785646 343.396190 145.285782
321.785646 343.396190 147.785782
324.285646 340.896190 145.285782
324.285646 340.896190 147.785782
324.285646 343.396190 145.285782
324.285646 343.396190 147.785782
321.785646 340.896190 150.285782
321.785646 340.896190 152.785782
321.785646 343.396190 150.285782
321.785646 343.396190 152.785782
324.285646 340.896190 150.285782
324.285646 340.896190 152.785782
324.285646 343.396190 150.285782
324.285646 343.396190 152.785782
326.785646 340.896190 146.735275
326.785646 340.896190 149.235275
326.785646 343.396190 146.735275
326.785646 343.396190 149.235275
329.285646 340.896190 146.735275
329.285646 340.896190 149.235275
329.285646 343.396190 146.735275
329.285646 343.396190 149.235275
326.785646 340.896190 151.735275
326.785646 340.896190 154.235275
326.785646 343.396190 151.735275
326.785646 343.396190 154.235275
329.285646 340.896190 151.735275
329.285646 340.896190 154.235275
329.285646 343.396190 151.735275
329.285646 343.396190 154.235275
331.785646 340.896190 147.752365
331.785646 340.896190 150.252365
331.785646 343.396190 147.752365
331.785646 343.396190 150.252365
334.285646 340.896190 147.752365
334.285646 340.896190 150.252365
334.285646 343.396190 147.752365
334.285646 343.396190 150.252365
331.785646 340.896190 152.752365
331.785646 340.896190 155.252365
331.785646 343.396190 152.752365
331.785646 343.396190 155.252365
334.285646 340.896190 152.752365
334.285646 340.896190 155.252365
334.285646 343.396190 152.752365
334.285646 343.396190 155.252365
336.785646 340.896190 148.732925
336.785646 340.896190 151.232925
336.785646 343.396190 148.732925
336.785646 343.396190 151.232925
339.285646 340.896190 148.732925
339.285646 340.896190 151.232925
339.285646 343.396190 148.732925
339.285646 343.396190 151.232925
336.785646 340.896190 153.732925
336.785646 340.896190 156.232925
336.785646 343.396190 153.732925
336.785646 343.396190 156.232925
339.285646 340.896190 153.732925
339.285646 340.896190 156.232925
339.285646 343.396190 153.732925
339.285646 343.396190 156.232925
341.785646 340.896190 150.004501
341.785646 340.896190 152.504501
341.785646 343.396190 150.004501
341.785646 343.396190 152.504501
344.285646 340.896190 150.004501
344.285646 340.896190 152.504501
344.285646 343.396190 150.004501
344.285646 343.396190 152.504501
341.785646 340.896190 155.004501
341.785646 340.896190 157.504501
341.785646 343.396190 155.004501
341.785646 343.396190 157.504501
344.285646 340.896190 155.004501
344.285646 340.896190 157.504501
344.285646 343.396190 155.004501
344.285646 343.396190 157.504501
341.785646 340.896190 160.004501
341.785646 340.896190 162.504501
341.785646 343.396190 160.004501
341.785646 343.396190 162.504501
344.285646 340.896190 160.004501
344.285646 340.896190 162.504501
344.285646 343.396190 160.004501
344.285646 343.396190 162.504501
346.785646 340.896190 151.587936
346.785646 340.896190 154.087936
346.785646 343.396190 151.587936
346.785646 343.396190 154.087936
349.285646 340.896190 151.587936
349.285646 340.896190 154.087936
349.285646 343.396190 151.587936
349.285646 343.396190 154.087936
346.785646 340.896190 156.587936
346.785646 340.896190 159.087936
346.785646 343.396190 156.587936
346.785646 343.396190 159.087936
349.285646 340.896190 156.587936
349.285646 340.896190 159.087936
349.285646 343.396190 156.587936
349.285646 343.396190 159.087936
346.785646 340.896190 161.587936
346.785646 340.896190 164.087936
346.785646 343.396190 161.587936
346.785646 343.396190 164.087936
349.285646 340.896190 161.587936
349.285646 340.896190 164.087936
349.285646 343.396190 161.587936
349.285646 343.396190 164.087936
351.785646 340.896190 153.922928
351.785646 340.896190 156.422928
351.785646 343.396190 153.922928
351.785646 343.396190 156.422928
354.285646 340.896190 153.922928
354.285646 340.896190 156.422928
354.285646 343.396190 153.922928
354.285646 343.396190 156.422928
351.785646 340.896190 158.922928
351.785646 340.896190 161.422928
351.785646 343.396190 158.922928
351.785646 343.396190 161.422928
354.285646 340.896190 158.922928
354.285646 340.896190 161.422928
354.285646 343.396190 158.922928
354.285646 343.396190 161.422928
351.785646 340.896190 163.922928
351.785646 340.896190 166.422928
351.785646 343.396190 163.922928
351.785646 343.396190 166.422928
354.285646 340.896190 163.922928
354.285646 340.896190 166.422928
354.285646 343.396190 163.922928
354.285646 343.396190 166.422928
356.785646 340.896190 156.912796
356.785646 340.896190 159.412796
356.785646 343.396190 156.912796
356.785646 343.396190 159.412796
359.285646 340.896190 156.912796
359.285646 340.896190 159.412796
359.285646 343.396190 156.912796
359.285646 343.396190 159.412796
356.785646 340.896190 161.912796
356.785646 340.896190 164.412796
356.785646 343.396190 161.912796
356.785646 343.396190 164.412796
359.285646 340.896190 161.912796
359.285646 340.896190 164.412796
359.285646 343.396190 161.912796
359.285646 343.396190 164.412796
361.785646 340.896190 159.556595
361.785646 340.896190 162.056595
361.785646 343.396190 159.556595
361.785646 343.396190 162.056595
364.285646 340.896190 159.556595
364.285646 340.896190 162.056595
364.285646 343.396190 159.556595
364.285646 343.396190 162.056595
361.785646 340.896190 164.556595
361.785646 340.896190 167.056595
361.785646 343.396190 164.556595
361.785646 343.396190 167.056595
364.285646 340.896190 164.556595
364.285646 340.896190 167.056595
364.285646 343.396190 164.556595
364.285646 343.396190 167.056595
366.785646 340.896190 164.296799
366.785646 340.896190 166.796799
366.785646 343.396190 164.296799
366.785646 343.396190 166.796799
369.285646 340.896190 164.296799
369.285646 340.896190 166.796799
369.285646 343.396190 164.296799
369.285646 343.396190 166.796799
371.785646 340.896190 169.515854
371.785646 340.896190 172.015854
371.785646 343.396190 169.515854
371.785646 343.396190 172.015854
374.285646 340.896190 169.515854
374.285646 340.896190 172.015854
374.285646 343.396190 169.515854
374.285646 343.396190 172.015854
376.785646 340.896190 172.168106
376.785646 340.896190 174.668106
376.785646 343.396190 172.168106
376.785646 343.396190 174.668106
379.285646 340.896190 172.168106
379.285646 340.896190 174.668106
379.285646 343.396190 172.168106
379.285646 343.396190 174.668106
381.785646 340.896190 175.130753
381.785646 340.896190 177.630753
381.785646 343.396190 175.130753
381.785646 343.396190 177.630753
384.285646 340.896190 175.130753
384.285646 340.896190 177.630753
384.285646 343.396190 175.130753
384.285646 343.396190 177.630753
256.785646 345.896190 145.013840
256.785646 345.896190 147.513840
256.785646 348.396190 145.013840
256.785646 348.396190 147.513840
259.285646 345.896190 145.013840
259.285646 345.896190 147.513840
259.285646 348.396190 145.013840
259.285646 348.396190 147.513840
261.785646 345.896190 144.129684
261.785646 345.896190 146.629684
261.785646 348.396190 144.129684
261.785646 348.396190 146.629684
264.285646 345.896190 144.129684
264.285646 345.896190 146.629684
264.285646 348.396190 144.129684
264.285646 348.396190 146.629684
266.785646 345.896190 143.628647
266.785646 345.896190 146.128647
266.785646 348.396190 143.628647
266.785646 348.396190 146.128647
269.285646 345.896190 143.628647
269.285646 345.896190 146.128647
269.285646 348.396190 143.628647
269.285646 348.396190 146.128647
271.785646 345.896190 143.454697
271.785646 345.896190 145.954697
271.785646 348.396190 143.454697
271.785646 348.396190 145.954697
274.285646 345.896190 143.454697
274.285646 345.896190 145.954697
274.285646 348.396190 143.454697
274.285646 348.396190 145.954697
271.785646 345.896190 148.454697
271.785646 345.896190 150.954697
271.785646 348.396190 148.454697
271.785646 348.396190 150.954697
274.285646 345.896190 148.454697
274.285646 345.896190 150.954697
274.285646 348.396190 148.454697
274.285646 348.396190 150.954697
276.785646 345.896190 143.889389
276.785646 345.896190 146.389389
276.785646 348.396190 143.889389
276.785646 348.396190 146.389389
279.285646 345.896190 143.889389
279.285646 345.896190 146.389389
279.285646 348.396190 143.889389
279.285646 348.396190 146.389389
276.785646 345.896190 148.889389
276.785646 345.896190 151.389389
276.785646 348.396190 148.889389
276.785646 348.396190 151.389389
279.285646 345.896190 148.889389
279.285646 345.896190 151.389389
279.285646 348.396190 148.889389
279.285646 348.396190 151.389389
281.785646 345.896190 144.372177
281.785646 345.896190 146.872177
281.785646 348.396190 144.372177
281.785646 348.396190 146.872177
284.285646 345.896190 144.372177
284.285646 345.896190 146.872177
284.285646 348.396190 144.372177
284.285646 348.396190 146.872177
281.785646 345.896190 149.372177
281.785646 345.896190 151.872177
281.785646 348.396190 149.372177
281.785646 348.396190 151.872177
284.285646 345.896190 149.372177
284.285646 345.896190 151.872177
284.285646 348.396190 149.372177
284.285646 348.396190 151.872177
286.785646 345.896190 144.863358
286.785646 345.896190 147.363358
286.785646 348.396190 144.863358
286.785646 348.396190 147.363358
289.285646 345.896190 144.863358
289.285646 345.896190 147.363358
289.285646 348.396190 144.863358
289.285646 348.396190 147.363358
286.785646 345.896190 149.863358
286.785646 345.896190 152.363358
286.785646 348.396190 149.863358
286.785646 348.396190 152.363358
289.285646 345.896190 149.863358
289.285646 345.896190 152.363358
289.285646 348.396190 149.863358
289.285646 348.396190 152.363358
291.785646 345.896190 145.241135
291.785646 345.896190 147.741135
291.785646 348.396190 145.241135
291.785646 348.396190 147.741135
294.285646 345.896190 145.241135
294.285646 345.896190 147.741135
294.285646 348.396190 145.241135
294.285646 348.396190 147.741135
291.785646 345.896190 150.241135
291.785646 345.896190 152.741135
291.785646 348.396190 150.241135
291.785646 348.396190 152.741135
294.285646 345.896190 150.241135
294.285646 345.896190 152.741135
294.285646 348.396190 150.241135
294.285646 348.396190 152.741135
296.785646 345.896190 145.623245
296.785646 345.896190 148.123245
296.785646 348.396190 145.623245
296.785646 348.396190 148.123245
299.285646 345.896190 145.623245
299.285646 345.896190 148.123245
299.285646 348.396190 145.623245
299.285646 348.396190 148.123245
296.785646 345.896190 150.623245
296.785646 345.896190 153.123245
296.785646 348.396190 150.623245
296.785646 348.396190 153.123245
299.285646 345.896190 150.623245
